ncols         79
nrows         67
xllcorner     489820.880
yllcorner     1276483.428
cellsize      100.00000
       12.5344       12.5566       12.6138       12.7023       12.7677       12.8100       12.8318       12.8345       12.8171       12.6478       11.9842        9.6985        6.3827        3.0179       -1.1736       -5.7124       -7.0168       -6.9550       -4.1554        6.2741        9.0294        7.4070        5.9283        4.6279        3.3991        2.2186        1.0091       -2.2436       -4.0844       -2.9404       -3.5114       -3.8444       -4.0240       -5.3376       -8.0326      -11.1220      -13.4510      -11.5539       -4.8892        0.3138       -0.4203       -0.8501       -1.7406       -4.3690       -2.2121        5.7100        8.8649       10.1905       10.8411       11.2691       11.5643       11.7592       11.8682       11.8855       11.7531       11.6171       11.4981       11.2778       11.0683       10.8749       10.6939       10.5519       10.4733       10.4364       10.4248       10.4306       10.4481       10.4737       10.5053       10.5412       10.5802       10.6165       10.6397       10.6506       10.6507       10.6408       10.6219       10.5946       10.5598
       12.6311       12.6406       12.6708       12.7394       12.8057       12.8508       12.8788       12.8926       12.8944       12.8820       12.6128       10.2821        6.8117        3.2695       -0.6022       -5.4444       -7.1150       -7.0916       -3.1650        4.5606        5.4952        5.1942        4.5212        3.7196        2.8413        1.8997        0.9346       -0.1686       -4.8800       -4.2857       -3.9235       -3.6038       -3.6775       -5.1455       -7.1671      -10.5515      -13.9814      -12.1696       -7.0583        0.0336       -0.3434       -1.5323       -2.7440       -3.8969       -0.9233        8.3884       10.4015       10.7561       11.0012       11.2708       11.5177       11.7066       11.7978       11.6932       11.4206       11.4207       11.3091       11.1231       10.9409       10.7664       10.6015       10.4773       10.4086       10.3768       10.3677       10.3751       10.3940       10.4201       10.4517       10.4873       10.5257       10.5620       10.5854       10.5965       10.5966       10.5868       10.5679       10.5407       10.5058
       12.7163       12.7186       12.7387       12.7846       12.8511       12.8971       12.9167       12.8572       12.7550       12.6628       12.6251       10.4781        6.8314        3.3121       -0.4323       -5.8708       -7.4832       -7.0250       -3.0694        2.3211        3.3721        3.6883        3.5570        3.1612        2.5800        1.8564        1.0308        0.2068       -3.1377       -4.8990       -4.1632       -3.6577       -3.8539       -5.1063       -7.3441      -10.1493      -13.4897      -11.9213       -6.4116       -0.0287       -0.3944       -1.7169       -3.5313       -2.8160       -0.2654       11.6875       10.5335       10.4749       10.7057       11.0103       11.3015       11.5294       11.5694       11.3811       11.1687       11.2224       11.1326       10.9773       10.8189       10.6637       10.5144       10.4051       10.3448       10.3173       10.3106       10.3190       10.3387       10.3655       10.3972       10.4326       10.4704       10.5071       10.5311       10.5427       10.5432       10.5336       10.5150       10.4879       10.4532
       12.7918       12.7899       12.8050       12.8374       12.9007       12.8923       12.7085       12.4142       12.0461       11.6043       10.7252        9.0578        6.4436        2.8041       -1.3584       -6.4664       -7.6015       -6.5177       -2.4892        1.0143        2.2425        2.8614        3.0584        2.9481        2.6020        2.0650        1.3789        0.6241       -1.2592       -4.9218       -4.8853       -4.7601       -4.4353       -4.9246       -6.9909      -10.3560      -14.0766      -12.6924       -9.9780       -2.4593       -1.1837       -2.1475       -3.5208       -2.2090        2.0484        9.1333        9.6716        9.8905       10.2437       10.6332       10.9987       11.2381       11.2312       10.9863       10.9416       11.0303       10.9667       10.8416       10.7034       10.5662       10.4320       10.3351       10.2820       10.2583       10.2536       10.2630       10.2830       10.3103       10.3422       10.3774       10.4148       10.4519       10.4769       10.4893       10.4904       10.4814       10.4631       10.4364       10.4020
       12.8596       12.8550       12.8684       12.8947       12.9161       12.6469       12.2078       11.6702       11.0195       10.1605        8.9166        7.3893        5.4194        2.2492       -4.9355       -7.2001       -7.7496       -6.7531       -3.0176        0.5968        1.7713        2.5619        2.9772        3.0796        2.9173        2.5279        1.9562        1.2946        0.3204       -6.0019       -4.7121       -4.9803       -4.2978       -4.6689       -7.1504      -10.4039      -13.2557      -13.7002      -10.9007       -2.4959       -1.3525       -2.6499       -4.1350       -1.7614        3.6831        7.1201        8.3604        9.0896        9.6617       10.1734       10.6260       10.8591       10.8335       10.6413       10.7207       10.8439       10.8096       10.7124       10.5955       10.4738       10.3536       10.2672       10.2201       10.1999       10.1971       10.2074       10.2276       10.2551       10.2871       10.3221       10.3592       10.3966       10.4229       10.4364       10.4384       10.4301       10.4125       10.3863       10.3522
       12.9222       12.9148       12.9279       12.9564       12.7226       12.2204       11.6053       10.8699        9.9625        8.8402        7.5386        6.0348        4.2910        1.9375       -2.6418       -7.3964       -7.6589       -6.3226       -5.0589        0.8086        1.8159        2.6951        3.2754        3.5547        3.5452        3.2723        2.7898        2.1594        1.0334       -5.1227       -4.9928       -4.8770       -4.6004       -4.7415       -6.0051       -8.8209      -13.1758      -14.3885      -11.1437       -4.4389       -2.5718       -3.5948       -4.7934       -2.6518        2.7197        5.6961        7.1848        8.1782        8.9663        9.6437       10.2005       10.4540       10.4101       10.3429       10.5077       10.6623       10.6594       10.5883       10.4931       10.3870       10.2793       10.2015       10.1596       10.1424       10.1413       10.1525       10.1729       10.2003       10.2324       10.2672       10.3038       10.3414       10.3694       10.3842       10.3874       10.3800       10.3631       10.3375       10.3039
       12.9710       12.9642       12.9733       12.9410       12.3976       11.7589       11.0063       10.1226        9.0988        7.9251        6.5929        5.0838        3.3995        1.4979       -4.0950       -7.9566       -7.4362       -5.7958       -2.2222        1.2379        2.3227        3.2347        3.9593        4.4088        4.5414        4.3581        3.9107        3.1239        1.7706        0.1212       -5.4959       -5.3256       -4.6324       -4.8816       -6.5602       -9.6163      -12.9933      -14.5684      -12.0295       -5.8192       -2.5373       -4.4748       -4.6398       -4.0661        1.9641        4.5851        6.1848        7.3539        8.3045        9.1321        9.7822       10.0529        9.9805       10.0701       10.3019       10.4866       10.5146       10.4684       10.3938       10.3047       10.2091       10.1385       10.1008       10.0861       10.0866       10.0984       10.1191       10.1464       10.1784       10.2129       10.2490       10.2864       10.3163       10.3328       10.3372       10.3310       10.3150       10.2902       10.2572
       12.9904       12.9731       12.9588       12.7592       12.1942       11.4892       10.6206        9.6396        8.5405        7.3101        5.9395        4.4217        2.7518        0.9464       -5.2726       -8.8370       -7.3041       -5.2638       -1.2405        1.5405        3.0359        4.1734        5.0807        5.7241        5.9975        5.8151        5.1819        4.0964        2.5258        0.8887       -5.0755       -5.3017       -5.1221       -5.5151       -6.2673      -10.3308      -13.5541      -15.6347      -13.1316       -8.5015       -4.6834       -4.6837       -3.1578       -0.0032        1.3521        3.6685        5.3201        6.6004        7.6861        8.6512        9.3911        9.6726        9.5834        9.8188       10.1055       10.3174       10.3740       10.3518       10.2970       10.2244       10.1424       10.0783       10.0440       10.0315       10.0332       10.0456       10.0665       10.0937       10.1253       10.1594       10.1950       10.2317       10.2637       10.2821       10.2881       10.2831       10.2682       10.2443       10.2122
       12.9855       12.9529       12.9061       12.6287       12.0593       11.3496       10.4701        9.3941        8.2110        6.9202        5.5123        3.9831        2.3351        0.6087       -5.5579       -9.2715       -7.4309       -4.9873       -0.6045        1.7163        3.5752        5.1187        6.4096        7.4089        7.8372        7.4481        6.4147        4.9100        3.2710        1.5309       -0.9998       -5.5574       -5.9372       -6.0006       -6.8477       -9.8709      -13.4967      -15.7644      -14.8962      -11.3308       -5.2347       -2.4877       -4.9062        0.1906        0.8807        2.8220        4.5094        5.8773        7.0776        8.1776        9.0392        9.3261        9.2346        9.5889        9.9214       10.1541       10.2361       10.2375       10.2021       10.1455       10.0773       10.0203        9.9897        9.9789        9.9816        9.9944       10.0154       10.0424       10.0736       10.1070       10.1419       10.1778       10.2115       10.2320       10.2399       10.2365       10.2228       10.2000       10.1688
       12.9607       12.9095       12.8291       12.5463       11.9993       11.2944       10.4234        9.3317        8.0629        6.7098        5.2634        3.7237        2.1053        0.5414       -6.5998       -9.8556       -7.7829       -4.6035        0.0255        1.9143        3.7761        5.6383        7.4425        9.0951       10.0242        8.8599        7.2673        5.6786        4.0701        2.4434        0.8804       -3.9690       -6.4452       -6.1571       -7.1896       -9.5239      -13.8201      -15.7098      -15.3356      -12.2605       -7.4598       -4.7706       -2.5468        0.2209        0.5525        1.9864        3.6716        5.1226        6.4362        7.6785        8.7331        9.0353        8.9248        9.3830        9.7513        9.9934       10.0995       10.1246       10.1084       10.0681       10.0135        9.9635        9.9369        9.9284        9.9321        9.9452        9.9661        9.9929       10.0234       10.0559       10.0899       10.1249       10.1596       10.1827       10.1927       10.1910       10.1788       10.1571       10.1267
       12.9166       12.8451       12.7572       12.5061       12.0235       11.3382       10.4806        9.4001        8.0691        6.6541        5.1701        3.6230        2.0584        0.5430       -7.5625      -10.0587       -8.3851       -4.0059        0.3039        2.1126        4.0178        5.9748        7.9208        9.7803       10.1989        8.9776        7.4827        6.0275        4.5991        3.1791        1.7244        0.2220       -2.8034       -5.6504       -8.5981       -9.7361      -12.5931      -14.9126      -15.0844      -12.0912       -8.3028       -4.2548       -4.8610        0.2321        0.4683        1.2853        2.7104        4.2485        5.6790        7.0835        8.4561        8.8369        8.6499        9.2040        9.5904        9.8282        9.9628       10.0124       10.0157        9.9921        9.9513        9.9083        9.8851        9.8786        9.8838        9.8977        9.9187        9.9453        9.9748       10.0063       10.0393       10.0732       10.1079       10.1339       10.1463       10.1465       10.1358       10.1153       10.0859
       12.8539       12.7737       12.6889       12.4962       12.0981       11.4913       10.6640        9.5938        8.2195        6.7455        5.2304        3.6974        2.1491        0.5180       -9.9783      -10.1064       -8.6516       -3.4210        0.4405        2.4051        4.4976        6.5865        8.5176        9.4031        9.3599        8.6037        7.3892        6.0910        4.7919        3.4908        2.1973        0.8405       -1.1853       -3.8639       -9.8800       -9.8230      -11.4181      -14.1817      -15.4238      -12.3020       -9.2441       -5.4349       -3.5841        0.2184        0.4622        0.8651        1.8253        3.1865        4.6924        6.2364        7.9540        8.8260        8.4150        9.0509        9.4102        9.6552        9.8245        9.9002        9.9247        9.9181        9.8906        9.8547        9.8345        9.8299        9.8366        9.8513        9.8726        9.8989        9.9275        9.9578        9.9897       10.0225       10.0560       10.0850       10.1000       10.1024       10.0935       10.0745       10.0463
       12.7845       12.7000       12.6153       12.4937       12.1982       11.7052       10.9706        9.9347        8.5203        6.9945        5.4418        3.8583        2.2259        0.4465      -10.3985      -10.3395       -8.1984       -3.2006        0.6397        2.8941        5.1525        7.3455        8.6193        9.0308        8.8908        8.3044        7.3505        6.1941        5.0068        3.7870        2.5301        1.2472       -0.1334       -3.0939       -9.9954       -9.8800      -12.5279      -15.5574      -15.8464      -12.6922       -8.7914       -6.3486       -6.1986        0.1763        0.4922        0.9125        1.4200        2.2510        3.3813        4.8223        6.8438        9.3565        8.2499        8.8100        9.1944        9.4780        9.6840        9.7899        9.8361        9.8456        9.8315        9.8036        9.7860        9.7830        9.7910        9.8066        9.8282        9.8534        9.8808        9.9099        9.9405        9.9721       10.0044       10.0354       10.0536       10.0586       10.0518       10.0345       10.0077
       12.7117       12.6273       12.5424       12.4572       12.2906       11.9420       11.3457       10.3561        8.8746        7.2844        5.6620        4.0018        2.2562        0.4204      -10.3848      -10.4467       -8.0487       -3.4663        0.9969        3.5245        5.9322        7.9004        8.7097        8.9180        8.7244        8.1988        7.3816        6.3508        5.2654        4.1325        2.9454        1.6976        0.3811       -2.1246       -9.9539      -10.8375      -13.7338      -17.2653      -17.1251      -13.9495      -10.2960       -8.4906       -6.6655        0.0956        0.6547        1.2619        1.7715        2.1381        2.4589        2.7645        3.0964        6.6529        6.8994        8.3430        8.9512        9.3030        9.5477        9.6842        9.7505        9.7758        9.7748        9.7565        9.7410        9.7393        9.7483        9.7645        9.7852        9.8090        9.8350        9.8627        9.8919        9.9222        9.9532        9.9846       10.0066       10.0147       10.0105        9.9953        9.9702
       12.6401       12.5556       12.4705       12.3850       12.2990       12.1440       11.7747       10.8365        9.2219        7.5465        5.8387        4.0778        2.2784        0.4712       -9.5210      -10.9035       -8.9938       -4.9689        1.3770        4.2154        6.8103        8.4267        8.9582        9.0171        8.7634        8.2503        7.4938        6.5561        5.5596        4.5078        3.3949        2.2073        0.9530       -1.0612       -9.9859      -11.7443      -14.7465      -17.7868      -18.5235      -16.5528      -13.7355      -10.2673       -6.6848       -2.2888        0.9613        1.8640        2.6260        3.2397        3.6987        3.9916        4.5610        5.9661        6.5188        7.8356        8.7335        9.1529        9.4238        9.5858        9.6708        9.7113        9.7230        9.7147        9.7016        9.7005        9.7098        9.7250        9.7439        9.7658        9.7902        9.8163        9.8439        9.8728        9.9024        9.9326        9.9587        9.9705        9.9693        9.9566        9.9335
       12.5697       12.4850       12.3998       12.3140       12.2277       12.1409       12.0534       11.2506        9.5299        7.7680        5.9704        4.1544        2.3527        0.5831       -7.3099      -10.1057       -9.3242       -3.6805        1.7479        4.9895        7.7664        9.0668        9.3511        9.2644        8.9374        8.4055        7.6697        6.8128        5.8994        4.9271        3.8871        2.7673        1.5548        0.3586      -10.0532      -12.5575      -15.9141      -18.7882      -19.4948      -17.3620      -13.4384       -9.3511       -5.1176       -1.2582        1.3568        2.7907        3.9284        4.9370        5.9328        6.7804        7.0583        7.6855        7.6160        8.0563        8.7170        9.0787        9.3312        9.5056        9.6048        9.6577        9.6803        9.6814        9.6710        9.6688        9.6752        9.6878        9.7042        9.7240        9.7464        9.7708        9.7967        9.8240        9.8522        9.8810        9.9093        9.9255        9.9279        9.9181        9.8975
       12.5024       12.4156       12.3302       12.2447       12.1626       12.0847       12.0058       11.3549        9.9018        8.0993        6.2376        4.3484        2.4524        0.6702       -8.8286      -10.5469      -10.2259       -5.5846        1.6758        5.7019        8.8292        9.8411        9.7858        9.4707        9.0551        8.5157        7.8507        7.1148        6.2914        5.3973        4.4335        3.3848        2.2282        0.9618       -1.8798      -10.6994      -16.2785      -19.6706      -19.7843      -17.2088      -11.8323       -7.0500       -4.2946       -1.5262        2.0148        4.1613        5.5962        6.9204        8.4419        9.5544        9.2443        9.2552        8.6875        8.4085        8.9702        9.1806        9.3327        9.4740        9.5701        9.6264        9.6540        9.6599        9.6499        9.6421        9.6439        9.6529        9.6665        9.6836        9.7038        9.7262        9.7503        9.7758        9.8024        9.8298        9.8578        9.8791        9.8858        9.8795        9.8618
       12.4413       12.3483       12.2622       12.1826       12.1110       12.0495       11.9207       11.3017       10.1405        8.5627        6.6459        4.6707        2.6477        0.5799      -10.3589      -10.9782      -10.7649       -8.6618        1.4252        5.6529        9.9161       10.3713        9.8363        9.4112        8.9848        8.5090        7.9870        7.4009        6.7239        5.9252        5.0442        4.0773        2.9868        1.6397       -4.9150      -10.9141      -16.9173      -20.1735      -20.2484      -19.4275      -13.7834      -10.5085       -6.3435       -2.3857        4.6300        6.0025        7.3096        8.6297       10.0000       10.0000       10.0000       10.0000        9.5776        9.1708        9.3343        9.3337        9.3869        9.4779        9.5613        9.6121        9.6378        9.6438        9.6340        9.6201        9.6161        9.6205        9.6307        9.6449        9.6624        9.6826        9.7046        9.7282        9.7532        9.7790        9.8056        9.8308        9.8425        9.8405        9.8262
       12.3850       12.2851       12.1984       12.1281       12.0696       12.0245       11.8867       11.3417       10.3681        8.9912        7.1535        5.1025        2.9862        0.7004      -10.0938      -11.1602      -10.8665       -6.9895        0.6610        4.6908        8.4633        9.5575        9.2956        9.0190        8.7510        8.4543        8.1044        7.6846        7.1681        6.5192        5.7385        4.8764        3.8752        2.3924       -2.7893      -10.3737      -15.4510      -19.8917      -20.3378      -20.4290      -17.5270      -14.0503       -8.2501       -5.7504       10.0000        9.1505        9.4122       10.0000       10.0000       10.0000       10.0000       10.0000       10.0000        9.9630        9.7808        9.5136        9.4674        9.4997        9.5607        9.6038        9.6261        9.6312        9.6217        9.6030        9.5921        9.5910        9.5970        9.6078        9.6223        9.6399        9.6598        9.6814        9.7044        9.7287        9.7537        9.7794        9.7973        9.8003        9.7902
       12.3312       12.2237       12.1368       12.0775       12.0338       12.0063       11.9202       11.4901       10.6836        9.4709        7.7387        5.6333        3.4677        1.1954       -3.0461       -9.2532       -9.8191       -7.5552       -4.3066        2.8637        6.2184        8.0638        8.4396        8.4948        8.4684        8.3811        8.2231        7.9880        7.6515        7.1771        6.5407        5.8288        4.9363        3.2331        0.1685       -8.8904      -13.7148      -17.9890      -20.6686      -20.8899      -19.1972      -15.5176      -10.2494       -5.7970        3.4127        9.7040        8.8131        9.0604        9.7301        9.9973        9.9580       10.0000       10.0000       10.0000        9.9386        9.7115        9.5701        9.5417        9.5662        9.6002        9.6180        9.6212        9.6117        9.5912        9.5722        9.5645        9.5655        9.5724        9.5836        9.5982        9.6157        9.6351        9.6562        9.6787        9.7022        9.7264        9.7493        9.7583        9.7532
       12.2795       12.1627       12.0749       12.0308       12.0066       12.0000       11.9852       11.7257       11.1170       10.0683        8.3784        6.2290        4.0377        1.8569       -3.9198       -8.9715       -8.8932       -7.9576       -4.0329        0.4343        4.0466        6.2636        7.4064        7.8808        8.1454        8.3029        8.3632        8.3305        8.1969        7.9212        7.4826        7.0042        6.2174        4.3848        1.0967       -4.5587      -12.4086      -16.5018      -20.0624      -20.3544      -19.8189      -15.3435       -9.4407       -4.9998       -0.4222        5.3301        6.2442        7.1986        7.9285        8.4159        8.8066        9.1574        9.5019        9.7714        9.8518        9.8505        9.6806        9.5981        9.5815        9.5989        9.6118        9.6128        9.6027        9.5824        9.5569        9.5414        9.5362        9.5386        9.5461        9.5575        9.5722        9.5894        9.6084        9.6289        9.6508        9.6736        9.6971        9.7135        9.7144
       12.2339       12.1038       12.0140       11.9992       11.9948       11.9937       11.9961       11.9588       11.6478       10.8314        9.0458        6.8441        4.6203        2.3794        0.2321       -4.1696       -7.1241       -6.9886       -5.0789       -3.7091        2.0948        4.4046        6.1241        7.1412        7.7685        8.2119        8.5285        8.7269        8.8155        8.7695        8.5863        8.4617        7.9850        6.2539        3.0524       -3.4826      -10.5555      -15.3204      -19.7737      -20.6655      -19.8929      -15.5067      -10.1537       -5.3566       -1.1569        2.5482        4.3814        5.5887        6.4458        7.2082        7.8662        8.4499        8.9699        9.4000        9.6603        9.7535        9.7542        9.6557        9.6055        9.5963        9.6046        9.6039        9.5936        9.5739        9.5461        9.5217        9.5094        9.5064        9.5098        9.5177        9.5294        9.5440        9.5608        9.5794        9.5996        9.6208        9.6428        9.6645        9.6729
       12.1921       12.0597       11.9817       11.9620       11.9506       11.9455       11.9496       11.9627       11.9828       11.8026        9.6944        7.4358        5.1862        2.8963        0.5322       -2.3100       -5.1242       -6.1354       -4.2723       -4.8791        0.3435        2.6295        4.5862        6.1451        7.2570        8.0645        8.6867        9.1600        9.4842        9.6174        9.7176       10.0000        9.8280        9.9336        9.9342        0.3969       -9.6505      -14.6695      -19.3883      -20.2268      -19.5593      -16.2290      -12.1639       -7.3462       -2.5672        1.0767        3.1101        4.3908        5.4192        6.3133        7.1053        7.8216        8.4692        9.0254        9.4165        9.6019        9.6779        9.6819        9.6257        9.5956        9.5915        9.5913        9.5818        9.5635        9.5370        9.5059        9.4853        9.4758        9.4745        9.4787        9.4871        9.4989        9.5135        9.5300        9.5482        9.5679        9.5885        9.6100        9.6272
       12.1476       12.0383       11.9642       11.9207       11.8990       11.8843       11.8774       11.8811       11.8907       11.4921        9.9149        7.7611        5.6298        3.5101        1.3192       -0.8651       -4.1103       -7.9967       -6.6050       -5.2456       -3.2831        1.0347        3.0652        4.8770        6.4253        7.6961        8.7053        9.4709        9.9628       10.0117        9.3808        8.4897        7.5862        6.5923        4.8485       -3.2579      -10.1816      -14.7586      -20.1284      -21.1204      -19.7498      -15.7305      -10.3308       -5.8594       -2.7719        0.4929        2.2736        3.5471        4.6313        5.5852        6.4515        7.2484        7.9860        8.6445        9.1541        9.4238        9.5552        9.6100        9.6157        9.5870        9.5705        9.5693        9.5636        9.5485        9.5250        9.4936        9.4640        9.4471        9.4401        9.4401        9.4451        9.4539        9.4660        9.4805        9.4968        9.5148        9.5340        9.5543        9.5753
       12.1084       12.0111       11.9358       11.8797       11.8419       11.8163       11.7966       11.7842       11.6188       11.0433        9.8712        7.9321        5.9402        3.9883        2.0859        0.2350       -2.5195       -6.1188       -8.4202       -6.9128       -5.4175       -0.6067        1.7546        3.6232        5.4098        7.0633        8.5327        9.6732        9.9848        9.2820        8.3824        7.3810        6.1896        4.7591        2.9243       -3.0565      -10.1414      -14.6316      -19.1751      -20.3187      -20.0573      -15.7750       -9.8155       -4.5986       -2.3490        0.0968        1.6680        2.8986        3.9809        4.9607        5.8688        6.7179        7.5178        8.2585        8.8806        9.2357        9.4215        9.5086        9.5379        9.5472        9.5381        9.5320        9.5328        9.5246        9.5065        9.4797        9.4461        9.4202        9.4066        9.4018        9.4031        9.4088        9.4182        9.4305        9.4449        9.4612        9.4791        9.4982        9.5181
       12.0676       11.9749       11.8977       11.8345       11.7847       11.7471       11.7153       11.6648       11.3884       10.7826        9.7323        8.0639        6.2024        4.4000        2.6671        1.0338        0.1200       -4.0704       -7.0249       -7.3963       -6.7845       -4.2032        0.6775        2.6535        4.6251        6.6747        8.9497       10.0000        9.5245        8.7492        7.8251        6.7732        5.5189        4.0010        2.1443       -0.7978       -9.2418      -13.8969      -18.2496      -20.4905      -20.4317      -18.1759      -13.2199       -5.8068       -3.3101       -0.7300        1.1501        2.3474        3.4196        4.4075        5.3376        6.2210        7.0637        7.8678        8.5930        9.0475        9.2871        9.4058        9.4486        9.4594        9.4725        9.4788        9.4817        9.4853        9.4771        9.4579        9.4290        9.3958        9.3741        9.3634        9.3606        9.3632        9.3698        9.3798        9.3923        9.4070        9.4235        9.4414        9.4603
       12.0222       11.9314       11.8526       11.7844       11.7265       11.6787       11.6362       11.5512       11.2469       10.6564        9.6721        8.1705        6.4243        4.7503        3.1506        1.6492        0.3944       -1.3523       -5.4545       -6.6545       -7.0280       -6.5997       -5.6512        1.3462        3.6606        6.2666        8.9868        9.8663        9.2816        8.4998        7.5558        6.4772        5.2154        3.7258        1.9806        0.1869       -8.7344      -12.9693      -16.7157      -19.2978      -20.0446      -20.1454      -18.0157      -14.0548       -6.9290       -2.1661        0.7289        1.8753        2.9257        3.9121        4.8517        5.7554        6.6264        7.4741        8.2723        8.8616        9.1604        9.3076        9.3602        9.3700        9.3819        9.3961        9.4110        9.4218        9.4292        9.4227        9.4037        9.3739        9.3432        9.3253        9.3173        9.3164        9.3203        9.3279        9.3385        9.3518        9.3669        9.3836        9.4016
       11.9727       11.8830       11.8027       11.7307       11.6667       11.6104       11.5580       11.4681       11.1807       10.6277        9.6884        8.2641        6.6325        5.0792        3.6007        2.2126        1.0004        0.1420       -2.9073       -5.0030       -6.0489       -6.7570       -5.8726       -3.2496        2.4609        6.2363        9.4650        9.7817        9.1980        8.4377        7.5193        6.4416        5.1953        3.7558        2.1382        0.3922       -6.8835      -12.3179      -15.2745      -18.1280      -19.6515      -20.2209      -19.9616      -13.2335       -6.0443       -2.0114        0.4252        1.4747        2.4949        3.4710        4.4114        5.3237        6.2119        7.0821        7.9305        8.6681        9.0476        9.2200        9.2720        9.2832        9.2960        9.3095        9.3239        9.3384        9.3528        9.3647        9.3617        9.3443        9.3148        9.2877        9.2733        9.2680        9.2691        9.2744        9.2831        9.2950        9.3090        9.3248        9.3422
       11.9202       11.8317       11.7511       11.6766       11.6078       11.5435       11.4811       11.4063       11.1714       10.6761        9.7684        8.3606        6.8483        5.4172        4.0541        2.7713        1.6087        0.4729       -1.8944       -3.7501       -4.7992       -5.7300       -6.1906       -6.3025       -0.8483        9.6184       10.0000        9.7738        9.2392        8.5318        7.6701        6.6436        5.4402        4.0511        2.4631        0.6290       -3.9812      -11.7937      -14.6571      -17.5899      -18.9690      -19.2200      -16.9630      -12.1996       -5.7651       -1.8749        0.2220        1.1582        2.1322        3.0887        4.0209        4.9322        5.8274        6.7073        7.5721        8.4062        8.9521        9.1466        9.1843        9.1993        9.2147        9.2292        9.2426        9.2558        9.2688        9.2814        9.2934        9.2941        9.2796        9.2517        9.2286        9.2179        9.2153        9.2186        9.2259        9.2368        9.2504        9.2659        9.2830
       11.8684       11.7829       11.7029       11.6272       11.5552       11.4842       11.4126       11.3409       11.1924       10.7902        9.8906        8.4836        7.1346        5.8763        4.6564        3.4740        2.3029        1.0903       -0.2323       -1.0375       -3.5108       -4.7236       -6.7216       -6.0229       -4.5070        0.7828        8.2665        9.8572        9.3811        8.6955        7.9438        7.0419        5.8997        4.5364        2.9212        0.9212       -2.9905      -11.8822      -14.2304      -17.2725      -18.4827      -18.4068      -15.8925      -11.6116       -4.7333       -2.3430       -0.0119        0.8985        1.8354        2.7688        3.6873        4.5903        5.4785        6.3532        7.2150        8.0667        8.8592        9.0815        9.1014        9.1225        9.1415        9.1579        9.1716        9.1831        9.1933        9.2032        9.2128        9.2220        9.2263        9.2148        9.1888        9.1692        9.1620        9.1627        9.1689        9.1790        9.1919        9.2072        9.2243
       11.8218       11.7388       11.6598       11.5839       11.5090       11.4330       11.3548       11.2737       11.1882       10.9561       10.0086        8.7971        7.6711        6.5746        5.5030        4.4321        3.2858        2.0553        0.7058       -0.3373       -2.5803       -4.5201       -4.7888       -5.0991       -5.6454       -2.9600        2.6778        9.9552        9.0797        8.5375        8.0906        7.5353        6.6058        5.2342        3.4870        1.1894       -2.5568      -10.9947      -13.9063      -16.7609      -18.5065      -18.3793      -16.2179      -12.0094       -6.2086       -2.7858       -0.4497        0.6997        1.5845        2.4913        3.3949        4.2871        5.1670        6.0350        6.8919        7.7435        8.5878        9.0083        9.0379        9.0615        9.0813        9.0977        9.1112        9.1220        9.1305        9.1370        9.1425        9.1477        9.1528        9.1576        9.1517        9.1285        9.1117        9.1080        9.1127        9.1219        9.1340        9.1489        9.1663
       11.7695       11.6893       11.6135       11.5401       11.4662       11.3896       11.3079       11.2216       11.1295       11.0293       10.2773        9.2322        8.2407        7.2901        6.3513        5.3938        4.3789        3.2396        1.9414        0.5087       -1.4335       -3.7220       -4.9482       -4.8624       -5.0331       -5.0126       -2.0480        7.5341        7.6597        7.8297        7.9643        8.0278        7.6426        6.1479        3.9071        1.4928       -1.7186      -10.5822      -13.6983      -16.4819      -18.4602      -18.2193      -16.1357      -12.9811       -7.7963       -3.1348       -0.5318        0.5130        1.3896        2.2647        3.1456        4.0255        4.9047        5.8027        6.6982        7.5931        8.4018        8.8207        8.9588        9.0131        9.0356        9.0500        9.0620        9.0715        9.0788        9.0840        9.0873        9.0887        9.0887        9.0883        9.0875        9.0863        9.0705        9.0558        9.0580        9.0659        9.0777        9.0924        9.1095
       11.7065       11.6330       11.5617       11.4918       11.4216       11.3489       11.2714       11.1862       11.0983       11.0049       10.4837        9.6379        8.7870        7.9572        7.1369        6.3048        5.4292        4.4609        3.3017        1.9197        0.1329       -2.4381       -4.8009       -5.2052       -5.1576       -5.6408       -4.9615        0.2735        4.2034        5.7297        6.8532        7.8247        8.6054        6.5701        4.1643        1.7469       -1.1005       -5.1742      -12.5081      -15.6999      -18.1163      -17.4995      -15.3624      -13.5047       -9.3757       -4.0648       -0.1240        0.3388        1.2051        2.0749        2.9430        3.8350        4.7752        5.7132        6.6371        7.5219        8.1889        8.6074        8.8307        8.9413        8.9952        9.0164        9.0254        9.0328        9.0386        9.0425        9.0446        9.0449        9.0435        9.0405        9.0356        9.0286        9.0193        9.0081        9.0067        9.0150        9.0264        9.0407        9.0573
       11.6329       11.5679       11.5041       11.4409       11.3770       11.3112       11.2420       11.1672       11.0857       10.9764       10.5853        9.9386        9.2488        8.5594        7.8734        7.1795        6.4551        5.6599        4.7466        3.6119        2.3672       -0.6549       -5.0796       -5.5742       -5.5199       -6.5991       -7.1933       -3.4568        1.2701        3.2456        4.8019        5.7973        6.0597        5.2663        3.8563        1.9546       -0.7876       -4.2739      -12.1053      -14.7608      -17.8145      -18.3091      -17.2029      -15.2063      -10.2148       -4.4710       -1.1145        0.1443        1.0212        1.8817        2.7695        3.7613        4.7496        5.7069        6.6313        7.4299        8.0254        8.4391        8.7016        8.8609        8.9503        8.9922        9.0038        9.0079        9.0114        9.0138        9.0150        9.0148        9.0133        9.0105        9.0066        9.0021        9.0000        9.0000        9.0000        8.9999        9.0006        9.0067        9.0184
       11.5476       11.4927       11.4380       11.3836       11.3291       11.2728       11.2132       11.1492       11.0749       10.9691       10.6711       10.1868        9.6515        9.1039        8.5572        8.0149        7.4613        6.8580        6.2125        5.4229        4.9618        6.8711       -0.7362       -3.6218       -5.4385       -7.1095       -7.5628       -5.1566        0.3014        2.0656        3.4349        4.0819        4.1539        3.6956        2.8403        1.6768       -0.3864       -3.7461      -11.2013      -13.9818      -16.6914      -18.3823      -20.0970      -17.2667      -10.3187       -4.4513       -1.4614        0.1056        0.8260        1.6785        2.7082        3.7793        4.7936        5.7503        6.6461        7.3664        7.9163        8.3205        8.5995        8.7862        8.9043        8.9712        8.9983        9.0000        9.0001        9.0005        9.0008        9.0007        9.0003        9.0000        9.0000        9.0000        9.0000        9.0000        9.0000        9.0000        9.0000        8.9998        9.0028
       11.4499       11.4055       11.3606       11.3160       11.2720       11.2279       11.1816       11.1284       11.0627       10.9711       10.7522       10.3978        9.9888        9.5631        9.1415        8.7384        8.3610        8.0055        7.6280        7.1372        7.2807        9.3819        3.9333        0.1200       -3.4892       -6.3153       -8.6662       -8.3950       -2.1739        1.2775        2.2542        2.6770        2.7206        2.4318        1.8712        1.0959        0.1162       -3.4832      -10.1483      -13.4091      -15.8895      -17.8703      -19.5748      -19.2294      -12.4768       -5.1455       -2.6139       -0.5443        0.6226        1.5456        2.7519        3.8735        4.8938        5.8342        6.6811        7.3453        7.8591        8.2496        8.5321        8.7314        8.8659        8.9496        8.9915        9.0000        9.0000        9.0000        9.0000        9.0000        9.0000        9.0000        9.0000        9.0000        9.0000        9.0000        9.0000        9.0000        9.0000        9.0000        9.0000
       11.3448       11.3091       11.2733       11.2383       11.2048       11.1727       11.1408       11.1041       11.0493       10.9659       10.8165       10.5605       10.2558        9.9362        9.6250        9.3416        9.1084        8.9472        8.9073        8.7054        9.3333       10.0000        5.8943        1.8952       -1.5038       -4.8483       -8.9031       -9.9703       -4.2716        0.5139        1.2618        1.5926        1.6409        1.4634        1.0972        0.5962        0.1200       -3.1314      -10.3285      -13.4080      -16.0047      -17.6542      -18.8231      -18.5970      -13.5496       -7.6369       -3.5502       -1.1660        0.4070        1.5409        2.8943        4.0478        5.0558        5.9631        6.7535        7.3701        7.8515        8.2228        8.5004        8.7017        8.8425        8.9344        8.9848        9.0000        9.0000        9.0000        9.0000        9.0000        9.0000        9.0000        9.0000        9.0000        9.0000        9.0000        9.0000        9.0000        9.0000        9.0000        9.0000
       11.2337       11.2056       11.1778       11.1515       11.1277       11.1068       11.0887       11.0706       11.0357       10.9548       10.8429       10.6678       10.4500       10.2209       10.0037        9.8204        9.6966        9.6702        9.8083       10.0000       10.0000        9.4605        6.4282        3.6218        0.8676       -2.8221       -8.6768      -10.5272       -7.1262       -1.0200        0.5254        0.7876        0.8537        0.7581        0.5365        0.2497        0.1200       -3.1630       -9.7708      -13.7007      -16.2721      -17.1666      -17.6702      -17.6723      -14.8577       -9.5560       -4.6591       -2.2844        0.1787        1.6530        3.1517        4.3158        5.2578        6.0827        6.8186        7.4054        7.8717        8.2341        8.5028        8.6978        8.8368        8.9294        8.9820        9.0000        9.0000        9.0000        9.0000        9.0000        9.0000        9.0000        9.0000        9.0000        9.0000        9.0000        9.0000        9.0000        9.0000        9.0000        9.0000
       11.1160       11.0946       11.0739       11.0552       11.0397       11.0285       11.0224       11.0216       11.0196       10.9360       10.8174       10.7016       10.5581       10.4028       10.2587       10.1462       10.0851       10.0883       10.0693       10.0017       10.0000        8.7581        6.9138        4.8786        2.6238       -0.0108       -5.2190       -9.8618       -9.8834       -6.1783        0.1245        0.2648        0.3294        0.3078        0.2060        0.1200        0.1200       -3.9308       -9.4707      -12.3087      -14.8133      -16.1906      -16.2419      -16.4741      -16.7763      -12.7152       -9.9245       -5.2802       -0.7676        1.9050        3.5737        4.6136        5.4003        6.1541        6.8607        7.4361        7.8985        8.2612        8.5317        8.7180        8.8483        8.9350        8.9840        9.0000        9.0000        9.0000        9.0000        9.0000        9.0000        9.0000        9.0000        9.0000        9.0000        9.0000        9.0000        9.0000        9.0000        9.0000        9.0000
       10.9908       10.9753       10.9611       10.9503       10.9432       10.9398       10.9401       10.9453       10.9526       10.8921       10.7712       10.6588       10.5549       10.4567       10.3607       10.2773       10.2026       10.1263       10.0566       10.0030        9.8308        8.9771        7.7824        6.3124        4.4738        1.9613       -2.6302      -10.0501      -10.7172       -9.9056       -0.9943        0.1200        0.2178        0.3369        0.3508        0.2275        0.1200       -5.2883       -8.3452      -10.6158      -13.3805      -15.1737      -15.2367      -15.4290      -15.9139      -12.5670       -9.3554       -6.2080       -2.9686        2.3818        4.1792        4.8326        5.4903        6.1886        6.8831        7.4641        7.9329        8.3016        8.5752        8.7589        8.8741        8.9490        8.9897        9.0000        9.0000        9.0000        9.0000        9.0000        9.0000        9.0000        9.0000        9.0000        9.0000        9.0000        9.0000        9.0000        9.0000        9.0000        9.0000
       10.8562       10.8472       10.8415       10.8387       10.8373       10.8364       10.8355       10.8303       10.8183       10.7842       10.6994       10.5947       10.4954       10.4031       10.3176       10.2381       10.1639       10.0959       10.0387       10.0000        9.9287        9.5000        8.8378        7.9762        6.6671        4.4003       -0.6189       -8.6174      -10.0957       -9.9302       -3.3856        0.1722        0.5777        0.8782        0.9514        0.6984        0.1350       -5.5490       -7.4846       -9.8798      -11.9281      -13.8334      -14.4067      -14.3767      -15.3954      -11.7941       -9.8324       -6.9998       -4.4408        3.2003        4.7694        5.0031        5.5430        6.1931        6.8804        7.4867        7.9742        8.3553        8.6337        8.8127        8.9094        8.9681        8.9966        9.0000        9.0000        9.0000        9.0000        9.0000        9.0000        9.0000        9.0000        9.0000        9.0000        9.0000        9.0000        9.0000        9.0000        9.0000        9.0000
       10.7154       10.7125       10.7142       10.7170       10.7181       10.7171       10.7132       10.7057       10.6921       10.6633       10.6004       10.5083       10.4170       10.3328       10.2555       10.1841       10.1192       10.0627       10.0188       10.0000        9.9994        9.8556        9.5879        9.3049        9.0825        7.6886        1.1808       -4.0208       -8.3100       -7.1267       -9.8801        0.3358        1.2726        1.9153        2.1495        1.6985        0.1482       -5.0935       -6.2112       -7.5841      -10.3127      -12.7248      -13.9375      -13.8110      -13.3900      -11.5525      -10.0681       -8.1283       -5.4137       -0.8048        5.4724        5.1725        5.5696        6.1656        6.8357        7.4904        8.0168        8.4208        8.7064        8.8745        8.9482        8.9873        9.0000        9.0000        9.0000        9.0000        9.0000        9.0000        9.0000        9.0000        9.0000        9.0000        9.0000        9.0000        9.0000        9.0000        9.0000        9.0000        9.0000
       10.5752       10.5785       10.5859       10.5923       10.5964       10.5976       10.5954       10.5888       10.5755       10.5480       10.4952       10.4138       10.3211       10.2470       10.1820       10.1240       10.0728       10.0304       10.0021       10.0000       10.0000        9.9988        9.9386        9.7065        9.3339        8.0980        2.8450       -0.8772       -7.6432      -10.0034      -10.1991       -0.4283        2.2255        3.6844        4.3785        3.3292       -0.3333       -3.6972       -5.2220       -6.6960       -9.1170      -11.7940      -13.9337      -13.9568      -13.2613      -12.5098      -10.4347       -9.3879       -7.0886       -2.6373        4.9084        5.2690        5.5180        6.0658        6.7275        7.4282        8.0396        8.4920        8.7924        8.9385        8.9821        8.9992        9.0000        9.0000        9.0000        9.0000        9.0000        9.0000        9.0000        9.0000        9.0000        9.0000        9.0000        9.0000        9.0000        9.0000        9.0000        9.0000        9.0000
       10.4353       10.4466       10.4604       10.4718       10.4800       10.4847       10.4854       10.4810       10.4693       10.4425       10.3935       10.3167       10.2191       10.1496       10.1018       10.0615       10.0276       10.0034       10.0000       10.0000       10.0000        9.9961        9.8120        9.3446        8.5069        6.9659        3.5293       -0.8821       -6.8188      -10.5964      -10.3035       -6.1932        1.4373        5.3590        8.4264        3.2401        0.0184       -2.0344       -3.6382       -5.6353       -8.1151      -10.7713      -12.9060      -13.7125      -13.1781      -13.8745      -12.4285       -9.8474       -7.9203       -4.8164        0.5578        3.8809        5.0685        5.7405        6.4589        7.2155        7.9711        8.5531        8.8883        8.9874        8.9996        8.9985        8.9917        8.9857        8.9844        8.9886        8.9958        9.0000        9.0000        9.0000        9.0000        9.0000        9.0000        9.0000        9.0000        9.0000        9.0000        9.0000        9.0000
       10.2958       10.3174       10.3394       10.3574       10.3711       10.3803       10.3847       10.3837       10.3732       10.3476       10.3021       10.2277       10.1162       10.0373       10.0202       10.0061       10.0000       10.0000       10.0000       10.0000       10.0000        9.9681        9.7092        9.1461        8.1862        6.6308        4.0029        0.8766       -4.4294       -8.0821      -10.3505      -11.1279       -1.5750        2.5779        3.5173        0.8100        0.1922       -0.9143       -2.3381       -3.2577       -6.6426       -9.6531      -11.5960      -13.1493      -12.9480      -12.6404      -12.4493      -10.6771       -8.9457       -6.3794       -1.8837        1.1692        3.1179        4.6680        5.7468        6.6868        7.6001        8.4832        8.9836        9.0000        8.9914        8.9678        8.9438        8.9277        8.9241        8.9340        8.9554        8.9815        8.9992        9.0000        9.0000        9.0000        9.0000        9.0000        9.0000        9.0000        9.0000        9.0000        9.0000
       10.1603       10.1947       10.2266       10.2523       10.2722       10.2865       10.2956       10.2971       10.2872       10.2633       10.2211       10.1519       10.0498       10.0000       10.0000       10.0000       10.0000       10.0000       10.0000       10.0000       10.0000        9.9703        9.7345        9.2142        8.2585        6.7301        4.4342        2.0276        0.4412       -4.6336      -10.0066      -10.0029       -8.1592       -0.2735        0.2608        0.0715        0.1687       -0.1440       -1.0008       -2.5187       -5.5361       -8.5323      -10.7450      -12.0728      -12.4817      -11.6678      -11.7961      -10.7357       -9.2597       -7.2316       -4.6203       -0.1535        1.3310        2.7708        4.1000        5.3068        6.4245        7.5593        8.8347        8.9642        8.9400        8.8864        8.8404        8.8117        8.8049        8.8217        8.8607        8.9166        8.9730        9.0000        9.0000        9.0000        9.0000        9.0000        9.0000        9.0000        9.0000        9.0000        9.0000
       10.0472       10.0920       10.1308       10.1620       10.1875       10.2070       10.2182       10.2201       10.2113       10.1895       10.1508       10.0878       10.0141       10.0000       10.0000       10.0000       10.0000       10.0000       10.0000       10.0000       10.0000        9.9960        9.8535        9.4663        8.6382        7.1263        4.9901        3.1619        1.5771        0.1218       -4.3003       -7.1252      -11.3997       -7.2503       -2.9953       -1.1954        0.0285        0.1200       -0.2788       -2.5794       -3.8414       -6.8008       -9.4888      -11.4120      -12.1853      -11.0539      -10.8580      -10.2495       -9.8860       -8.9473       -6.2697       -2.5259        0.4991        1.7293        2.9543        4.1764        5.4553        7.0273        8.3750        8.7287        8.7691        8.7253        8.6572        8.6161        8.6088        8.6374        8.7013        8.7953        8.9031        8.9852        9.0000        9.0000        9.0000        9.0000        9.0000        9.0000        9.0000        9.0000        9.0000
        9.9992       10.0375       10.0698       10.0982       10.1209       10.1387       10.1502       10.1527       10.1455       10.1263       10.0911       10.0360       10.0000       10.0000       10.0000       10.0000       10.0000       10.0000       10.0000       10.0000       10.0000       10.0000        9.9850        9.8254        9.2877        7.6870        5.8775        4.2589        2.6716        1.0900       -0.5389       -7.7746      -12.7660       -9.7002       -6.6405       -1.8480        0.1200        0.1200        0.1200       -2.0288       -3.5352       -5.5839       -7.8198      -10.1516      -10.8785      -10.8523      -10.5401       -9.8199      -10.0182       -9.6650       -8.1145       -5.0012       -1.3490        0.8950        2.0819        3.2764        4.7582        6.6189        7.9465        8.3819        8.4794        8.4565        8.3838        8.3309        8.3267        8.3714        8.4647        8.6045        8.7777        8.9390        9.0000        9.0000        9.0000        9.0000        9.0000        9.0000        9.0000        9.0000        9.0000
        9.9463       10.0054       10.0295       10.0511       10.0688       10.0821       10.0920       10.0952       10.0895       10.0730       10.0407       10.0028       10.0000       10.0000       10.0000       10.0000       10.0000       10.0000       10.0000       10.0000       10.0000       10.0000       10.0000       10.0000        9.9468        8.4312        6.7823        5.1791        3.5960        1.9972        0.2751       -8.3737      -10.8869      -10.7800      -11.0808       -4.8433       -1.4983       -0.0462        0.0244       -1.0272       -2.8255       -4.4485       -6.8426       -9.0842       -9.4505       -9.9282       -9.9684       -9.2260       -9.4482       -8.9725       -9.3377       -7.7530       -4.9289       -0.3839        1.1641        2.3808        4.0802        6.1914        7.5750        7.9952        8.1071        8.0866        8.0077        7.9426        7.9426        8.0052        8.1305        8.3193        8.5690        8.8474        9.0000        9.0000        9.0000        9.0000        9.0000        9.0000        9.0000        9.0000        9.0000
        9.8974        9.9771       10.0059       10.0169       10.0291       10.0382       10.0442       10.0471       10.0423       10.0270       10.0011       10.0000       10.0000       10.0000       10.0000       10.0000       10.0000       10.0000       10.0000       10.0000       10.0000       10.0000       10.0000       10.0000        9.6437        8.6321        7.3691        5.9546        4.4231        2.9178        1.4479        0.1344       -2.3717      -11.0334      -12.6579       -8.4152       -7.3296       -9.6654       -3.7347       -2.2225       -2.9266       -4.1402       -5.7738       -8.0320       -9.0675       -9.1196       -8.3622       -8.9097       -9.1103       -9.4875       -8.9084       -8.7755       -6.6844       -3.4251        0.2254        1.4185        3.3204        5.6938        7.3059        7.6339        7.6702        7.6155        7.5039        7.4272        7.4324        7.5130        7.6676        7.9000        8.2196        8.6315        9.0000        9.0000        8.9987        9.0000        9.0000        9.0000        9.0000        9.0000        9.0000
        9.8582        9.9570        9.9985       10.0005       10.0034       10.0063       10.0078       10.0068       10.0000       10.0000       10.0000       10.0000       10.0000       10.0000       10.0000       10.0000       10.0000       10.0000       10.0000       10.0000       10.0000       10.0000       10.0000        9.9823        9.5632        8.7687        7.7473        6.5647        5.2723        3.9211        2.6350        1.4578        0.4260       -4.3234      -11.3171      -10.1001       -9.2104       -9.9619       -9.8800       -5.4013       -3.7059       -3.1002       -4.6635       -6.6398       -7.9638       -8.4238       -8.3257       -9.8800       -9.0770       -8.6460       -8.5609       -9.0699       -8.5380       -5.9828       -3.3482        0.3530        2.3275        5.0293        7.2255        7.3650        7.2042        7.0105        6.8267        6.7441        6.7569        6.8530        7.0268        7.2786        7.6126        7.9992        8.4790        8.7944        8.8751        8.9384        8.9855        9.0000        9.0000        9.0000        9.0000
        9.8349        9.9452        9.9968       10.0000       10.0000       10.0000       10.0000       10.0000       10.0000       10.0000       10.0000       10.0000       10.0000       10.0000       10.0000       10.0000       10.0000       10.0000       10.0000       10.0000       10.0000       10.0000       10.0000        9.9691        9.6266        8.9912        8.1380        7.1640        6.0981        4.9398        3.8254        2.7852        1.7350       -1.3071      -10.2703       -9.7918       -8.1435       -7.8397      -10.0969       -9.7967       -6.0098       -3.3427       -3.6591       -6.3183       -6.7096       -7.2296       -7.2516       -8.6670       -7.6299       -8.0746       -8.0804       -8.5742       -9.0695       -8.1228       -5.0632       -2.5752        0.5641        3.9542        7.4937        7.2853        6.7007        6.2060        5.9281        5.8279        5.8459        5.9501        6.1171        6.3307        6.5802        6.8986        7.5679        8.1735        8.5253        8.7445        8.8945        8.9837        9.0000        9.0000        9.0000
        9.8308        9.9466        9.9984       10.0000       10.0000       10.0000       10.0000       10.0000       10.0000       10.0000       10.0000       10.0000       10.0000       10.0000       10.0000       10.0000       10.0000       10.0000       10.0000       10.0000       10.0000       10.0000       10.0000        9.9866        9.7564        9.2771        8.5879        7.7844        6.9028        5.9419        5.0224        4.1780        3.3370        2.0280       -3.1832       -6.9489       -5.7423       -4.6918       -6.5625       -9.8800       -7.7265       -4.0930       -1.6319       -3.6970       -5.0641       -5.7589       -5.8790       -7.8624       -7.8193       -7.1443       -7.9288       -8.0035       -8.8041       -8.7369       -7.0948       -4.6907       -2.9737       -0.1707        5.5200        7.1604        5.7569        5.1143        4.8183        4.7091        4.7195        4.8151        4.9693        5.1658        5.3924        5.8216        6.6404        7.4183        7.9954        8.4176        8.7246        8.9243        9.0000        9.0000        9.0000
        9.8497        9.9634       10.0000       10.0000       10.0000       10.0000       10.0000       10.0000       10.0000       10.0000       10.0000       10.0000       10.0000       10.0000       10.0000       10.0000       10.0000       10.0000       10.0000       10.0000       10.0000       10.0000       10.0000       10.0000        9.8989        9.5866        9.0629        8.4133        7.6912        6.9264        6.2502        5.6929        5.2283        4.2671        1.6739       -4.3392       -4.8800       -4.8667       -4.8800      -10.7514       -8.3932       -6.2351       -4.2712       -3.3396       -3.3574       -4.9095       -4.8405       -5.8754       -6.4442       -7.0802       -7.7509       -7.8713       -8.2827       -8.6120       -8.1761       -7.7135       -5.4785       -4.8540       -4.8814        1.8508        3.9333        3.5998        3.4119        3.3670        3.4188        3.5407        3.7099        3.9180        4.1714        4.7494        5.6725        6.5962        7.3924        8.0256        8.5165        8.8191        8.9311        8.9374        8.9933
        9.8967        9.9917       10.0000       10.0000       10.0000       10.0000       10.0000       10.0000       10.0000       10.0000       10.0000       10.0000       10.0000       10.0000       10.0000       10.0000       10.0000       10.0000       10.0000        9.9962        9.9888        9.9853        9.9856        9.9893        9.9855        9.8612        9.5329        9.0321        8.4541        7.9201        7.5509        7.4207        7.4751        6.4217        3.1071        0.1964       -4.8800       -5.5221       -4.4291       -5.4795       -9.8800      -10.8594       -7.4357       -4.6178       -2.6539       -2.9449       -4.1605       -4.7702       -5.7683       -6.2026       -6.6581       -7.1747       -7.3988       -8.1999       -8.1597       -9.3885       -8.3719       -7.3030       -6.5549       -4.9609       -1.5604        0.9354        1.4766        1.7040        1.8987        2.1155        2.3634        2.6905        3.0233        3.5923        4.6018        5.7015        6.7278        7.6170        8.2805        8.6079        8.6557        8.5863        8.6433
        9.9750       10.0000       10.0000       10.0000       10.0000       10.0000       10.0000       10.0000       10.0000       10.0000       10.0000       10.0000       10.0000       10.0000       10.0000       10.0000       10.0000       10.0000        9.9777        9.9589        9.9478        9.9441        9.9463        9.9534        9.9651        9.9779        9.9190        9.6217        9.1976        8.9192        8.8097        8.8706        9.1350        7.6140        3.6165        0.1200        0.1200       -0.2718       -2.6664       -2.4120       -4.6079      -10.3748      -10.2244       -6.3374       -3.0511       -2.5019       -3.4609       -3.6419       -4.3962       -4.8175       -4.7117       -5.9230       -6.7288       -8.0005       -8.8732       -9.2396       -9.2169       -8.5856       -8.1935       -7.2347       -6.3081       -4.3233       -1.6834       -0.1467        0.4470        0.8464        1.2262        1.5741        1.8813        2.3180        3.2922        4.6650        6.0039        7.2338        8.0470        8.2989        8.0451        7.6779        7.3869
       10.0000       10.0000       10.0000       10.0000       10.0000       10.0000       10.0000       10.0000       10.0000       10.0000       10.0000       10.0000        9.9984        9.9969        9.9980       10.0000       10.0000        9.9511        9.9180        9.8986        9.8879        9.8847        9.8848        9.8679        9.8440        9.8267        9.8258        9.8231        9.6878        9.5787        9.5715        9.6131        9.4246        8.2969        4.4232        0.1200        0.1200        0.1200        0.1200       -1.3590       -3.9431       -7.8399       -8.3129       -4.8623       -3.5095       -2.7987       -2.9867       -3.4467       -4.2718       -4.3101       -4.1224       -4.8057       -5.5470       -6.9412       -7.8960       -8.6005       -8.5438       -8.6011       -8.4732       -8.2351       -7.7763       -7.0104       -5.7029       -4.0232       -2.0520       -0.7963        0.1546        0.4698        0.7478        0.9889        1.6911        3.1088        5.0722        6.9810        8.0692        7.7384        6.7915        5.8097        5.5829
        9.9500       10.0000       10.0000       10.0000       10.0000       10.0000       10.0000       10.0000       10.0000       10.0000        9.9929        9.9799        9.9658        9.9525        9.9402        9.9251        9.8998        9.8687        9.8412        9.8242        9.8148        9.7839        9.7128        9.6184        9.5104        9.3899        9.2647        9.1511        8.9576        8.8760        9.0077        9.2549        9.6010        9.0862        5.3888        0.4785        0.1092        0.1157        0.1056        0.1067       -0.9618       -2.8625       -4.4067       -3.9155       -3.4517       -2.8578       -2.3895       -2.8877       -3.1490       -3.3618       -3.7301       -4.1652       -5.6654       -6.1654       -6.7427       -7.2957       -7.6052       -8.0147       -8.2961       -8.4732       -8.3853       -8.0413       -7.4141       -6.3147       -5.1747       -3.9076       -2.8131       -1.9090       -1.2867       -0.5467       -0.1142        0.6101        2.5570        5.5025        7.3996        5.3778        3.9413        3.0614        3.5155
        9.8723       10.0000       10.0000       10.0000       10.0000       10.0000       10.0000       10.0000        9.9998        9.9841        9.9596        9.9337        9.9084        9.8840        9.8598        9.8310        9.8005        9.7753        9.7534        9.7392        9.6958        9.5900        9.4438        9.2697        9.0728        8.8556        8.6526        8.4550        8.2191        8.0093        8.0089        8.2841        8.7877        9.6903        6.2766        1.5173        0.0900        0.6734        2.1846        1.2710        0.6555        0.8052       -2.7063       -2.6954       -2.2149       -1.6187       -1.2474       -1.3767       -1.7552       -2.4411       -3.1610       -3.4484       -4.2793       -5.0297       -4.5657       -6.8421       -7.0616       -7.3026       -8.0444       -8.3573       -8.1291       -7.7203       -7.3550       -6.9953       -6.3693       -5.8931       -5.3943       -4.9389       -4.4317       -3.6862       -2.8092       -1.6716       -0.8013       -0.6916       -0.3128       -0.0893        0.3017        0.4801        1.0149
        9.8337        9.9984       10.0000       10.0000       10.0000       10.0000       10.0000       10.0000        9.9809        9.9475        9.9138        9.8792        9.8442        9.8089        9.7730        9.7355        9.7027        9.6784        9.6585        9.6285        9.5159        9.3397        9.1207        8.8701        8.5906        8.2977        8.0180        7.7366        7.4333        7.1292        6.9599        7.0446        7.3435        7.5210        5.6169        1.5997        0.0900        2.0541        5.6144        6.1990        0.5774        1.0615       -0.6163       -1.8177       -0.8609       -0.0590        0.9474        0.2538        0.0509       -0.4508       -1.6895       -1.9359       -2.7007       -3.8017       -3.8636       -5.5898       -5.2932       -6.1094       -7.0285       -7.4721       -7.5868       -7.4778       -7.1573       -7.0489       -6.9543       -6.8453       -6.5701       -6.2617       -6.1589       -5.6658       -5.0923       -3.3445       -2.1855       -2.5084       -2.7315       -2.4644       -2.4475       -1.6922       -1.2833
        9.8373       10.0000       10.0000       10.0000       10.0000       10.0000       10.0000        9.9914        9.9524        9.9120        9.8701        9.8270        9.7826        9.7372        9.6902        9.6436        9.6044        9.5789        9.5597        9.4822        9.3027        9.0565        8.7663        8.4430        8.0890        7.7262        7.3699        7.0029        6.6122        6.2114        5.8924        5.7148        5.6734        5.4487        3.9019        0.6535        0.0900        1.4702        2.8577        3.1977        0.0900        0.2743        0.3269       -1.5476       -0.0914        0.9678        1.7981        1.3048        1.0877        0.9488        0.3738       -1.0925       -1.4579       -2.5421       -2.8204       -3.7664       -5.1993       -5.4527       -5.4349       -5.5878       -6.4908       -7.3032       -7.0826       -6.7648       -6.8659       -6.8695       -6.7965       -6.5655       -6.6300       -6.5095       -5.8461       -4.8202       -4.0658       -4.6466       -4.4781       -4.3163       -4.0997       -3.6636       -3.3052
        9.8869       10.0000       10.0000       10.0000       10.0000       10.0000        9.9995        9.9667        9.9242        9.8767        9.8271        9.7758        9.7228        9.6681        9.6127        9.5583        9.5096        9.4767        9.4509        9.3187        9.0716        8.7551        8.4064        8.0287        7.6137        7.1749        6.7276        6.2642        5.7831        5.2834        4.8239        4.4273        4.1225        3.6534        2.0663        0.0900        0.0900        0.3833        0.7832        0.5567        0.0900        0.1260        0.2395       -1.0017       -0.2724        0.4051        1.9738        1.7882        2.3070        1.2457        1.0263        0.4570       -0.2656       -1.4713       -2.1252       -2.3135       -3.3849       -3.5528       -4.1537       -4.2901       -5.1530       -5.7922       -6.2272       -6.5405       -6.7734       -7.1547       -6.9945       -6.8997       -6.5857       -6.3010       -6.2366       -5.7522       -5.5993       -5.6799       -5.3946       -5.2035       -5.1055       -5.0369       -4.9623
        9.9780       10.0000       10.0000       10.0000       10.0000       10.0000        9.9882        9.9445        9.8955        9.8404        9.7837        9.7254        9.6655        9.6040        9.5415        9.4790        9.4198        9.3756        9.3350        9.1493        8.8323        8.4793        8.0960        7.6722        7.2009        6.6847        6.1429        5.5720        4.9659        4.3770        3.8051        3.2413        2.7138        2.0121        0.1201        0.0900        0.0900        0.0900        0.1133        0.0900        0.0900        0.1007       -0.2960       -0.3205       -0.0561        0.0900        0.0900        0.6333        0.2807        0.2130        0.7726        0.3993        0.1258       -0.8150       -1.3882       -1.2323       -2.7676       -3.5703       -3.7014       -3.6115       -4.2498       -4.7340       -5.4479       -5.8544       -6.0447       -6.4279       -6.7378       -6.9845       -6.4461       -6.2476       -6.3310       -6.2999       -6.1784       -6.0665       -5.8920       -5.7891       -5.5905       -5.4290       -5.2373
       10.0000       10.0000       10.0000       10.0000       10.0000       10.0000        9.9763        9.9258        9.8691        9.8065        9.7429        9.6786        9.6131        9.5462        9.4777        9.4078        9.3378        9.2779        9.2235        8.9786        8.6318        8.2585        7.8422        7.3735        6.8470        6.2590        5.6251        4.9466        4.2223        3.5115        2.8426        2.1437        1.4081        0.3358        0.0900        0.0900        0.0900        0.0900        0.0900        0.0900        0.1979        1.0345        0.0883        0.0311        0.0900        0.0900        0.0900        0.0900        0.0900        0.0900        0.5680        0.0900       -0.0742       -1.3886       -1.4784       -1.6533       -1.8619       -2.3455       -2.4412       -2.7494       -3.4466       -3.7669       -3.7665       -4.4849       -4.8017       -5.2834       -5.5727       -5.8626       -5.6936       -6.1278       -6.4449       -6.2050       -5.9317       -6.1870       -5.8764       -6.0290       -6.0067       -5.8679       -5.6721
       10.0000       10.0000       10.0000       10.0000       10.0000        9.9988        9.9673        9.9104        9.8447        9.7748        9.7052        9.6356        9.5653        9.4937        9.4204        9.3449        9.2672        9.1891        9.1250        8.8390        8.4906        8.0987        7.6480        7.1334        6.5522        5.9014        5.1777        4.3916        3.5733        2.7429        1.9541        1.1394        0.1833        0.0900        0.0900        0.0900        0.0900        0.0900        0.0900        0.0900        0.4914        0.6715        0.0900        0.0900        0.0900        0.0900        0.0900        0.0900        0.0900        0.0900        0.0900        0.0900        0.0900        0.0900       -1.7877       -1.6648       -1.3678       -1.4234       -1.7247       -1.9363       -2.2023       -2.9755       -3.3238       -3.7033       -4.3154       -4.6709       -5.0802       -4.9336       -4.6727       -5.0794       -5.9084       -5.6754       -4.9239       -4.8883       -5.4541       -5.6395       -5.8457       -5.8102       -5.5093
       10.0000       10.0000       10.0000       10.0000       10.0000        9.9982        9.9615        9.8971        9.8218        9.7451        9.6703        9.5961        9.5217        9.4462        9.3692        9.2898        9.2074        9.1210        9.0314        8.7720        8.4279        8.0136        7.5244        6.9601        6.3204        5.6025        4.8053        3.9473        3.0430        2.1108        1.2026        0.3486        0.0900        0.0900        0.0900        0.0900        0.0900        0.0900        0.0900        0.0900        0.0900        0.0900        0.0900        0.0901        0.0906        0.0904        0.0900        0.0900        0.0900        2.1614        1.5492        0.0900        0.0900       -0.0400       -0.8581       -1.2547       -1.0177       -0.9974       -1.2113       -1.2912       -1.5998       -2.1689       -2.7008       -3.0247       -3.2393       -3.4849       -3.4094       -3.7347       -3.8355       -4.5487       -5.0813       -4.8768       -4.7802       -4.6327       -4.6052       -4.9943       -5.5067       -5.0806       -4.8073
       10.0000       10.0000       10.0000       10.0000       10.0000        9.9994        9.9572        9.8832        9.7996        9.7176        9.6381        9.5599        9.4820        9.4035        9.3238        9.2423        9.1588        9.0832        9.0437        8.8380        8.4756        8.0343        7.4915        6.8663        6.1576        5.3724        4.5186        3.6045        2.6389        1.6323        0.6280        0.0900        0.0900        0.0900        0.0900        0.0900        0.0900        0.0900        0.0900        0.0900        0.0900        0.0900        0.0925        0.0951        0.0966        0.0967        0.0954        0.0921        0.0900        1.2947        1.9427        0.0900        0.0900        0.0900        0.0595       -0.3299        0.0353        0.3550       -1.5493       -1.4956       -1.2451       -1.0576       -1.2840       -1.8547       -2.2806       -2.6773       -2.9597       -2.9724       -2.9692       -3.6467       -4.3287       -3.7363       -3.3915       -3.6715       -4.0455       -4.1243       -3.9186       -3.9413       -4.1526

