ncols         180
nrows         57
xllcorner     586018.524026
yllcorner     2328207.51711
cellsize      40
NODATA_value  -9999
0.03074986 0.505089 1.615577 2.694192 3.264511 2.608433 1.614675 1.739226 1.519774 0.9978799 0.5525757 0.2584091 0.08744126 0.00931971 0 0 2.33842e-007 9.002851e-006 1.432671e-005 1.527379e-005 7.836663e-005 0.000138852 0.0001230592 5.469321e-005 9.903649e-006 9.084569e-015 2.248387e-017 0 0 0.0008873509 0.1199816 0.6397129 1.328401 1.810706 2.247455 1.409325 0.7968885 0.9426055 1.272303 2.11763 2.700687 2.010247 0.6954423 0.3405257 0.2699171 0.2779892 0.3000419 0.3113135 0.3056296 0.2833936 0.2478428 0.2029344 0.1535057 0.1027287 0.05458812 0.01671288 7.398682e-005 0.151034 0.9148049 2.230284 3.63645 4.798831 5.598323 6.003808 5.949867 5.371621 5.131961 5.724443 6.506281 7.13609 7.676025 8.056612 7.917869 6.728961 5.333086 4.398426 3.790654 3.526263 3.550197 3.792954 4.17999 4.65767 5.217262 5.964126 6.152564 5.824141 5.419592 5.302189 5.089487 4.718631 4.483425 4.397123 4.373724 4.39861 4.414298 4.554974 4.791286 5.04611 5.247906 5.359025 5.376017 5.340946 5.315499 5.261139 5.171147 5.078501 4.998475 4.935097 4.89798 4.877871 4.876878 4.920351 4.925448 5.041403 5.176277 5.513531 5.766085 6.21354 6.984066 8.007131 8.938773 9.351422 9.664028 9.736529 9.682962 9.547247 9.28181 8.9401 8.645775 8.411979 8.270717 8.273358 8.404857 8.581429 8.762725 8.870308 8.884838 8.888531 8.878901 8.806933 8.786606 8.829908 8.939477 9.053729 9.134799 9.191045 9.243381 9.272665 9.274854 9.251277 9.201753 9.149924 9.040975 8.853477 8.544496 8.197742 7.83902 7.488159 7.136385 6.784045 6.436757 6.098992 5.769095 5.440447 5.10977 4.779564 4.464946 4.200658 4.037029 3.960234 3.946922 4.00445 4.110145 4.252028 4.419792 4.60593 4.803724 5.006604 5.208978 5.404128
0.05091023 0.5438025 1.618555 2.874132 3.793442 3.505847 2.706834 2.462655 1.664074 0.9113674 0.418703 0.1627804 0.04865322 0.00748976 0.001683347 0.0005108484 0 0 5.245594e-006 8.45366e-005 0.0002380063 0.0003263844 0.0002797482 0.0001672304 9.210251e-005 5.302321e-005 6.335919e-006 0 0 0 0.002217029 0.1273845 0.3463065 0.5906591 0.9328956 0.4832204 0.5966673 1.410026 2.075552 2.557046 3.241345 3.140376 1.730016 1.029366 0.7314667 0.6011699 0.5335818 0.4803646 0.4287791 0.3758675 0.3213966 0.264691 0.2052254 0.1432684 0.08116307 0.02703225 0.000320769 0.2122068 0.9650421 2.11039 3.328009 4.349147 5.084758 5.556589 5.789906 5.551204 5.039971 5.482353 6.128749 6.667846 7.293395 7.901552 8.144747 7.553057 5.975061 4.625129 3.83193 3.505252 3.532574 3.8449 4.372072 5.034696 5.741733 6.371168 6.610868 6.468517 6.206572 5.989385 5.588586 5.114977 4.88204 4.840511 4.795775 4.824268 4.627644 4.673305 4.858479 5.090621 5.281795 5.370223 5.338454 5.249505 5.265883 5.231302 5.131383 5.051556 4.996728 4.958961 4.963418 4.971883 4.978595 5.111513 5.207114 5.398535 5.673299 6.025615 6.379272 6.865834 7.584872 8.409518 9.08073 9.548334 9.852351 9.960233 9.926634 9.777639 9.526577 9.223511 8.946855 8.717712 8.567878 8.569954 8.700674 8.830642 8.981954 9.080818 9.09271 9.084608 9.050622 8.968232 8.958735 8.967517 9.048913 9.149903 9.233362 9.298766 9.351135 9.38263 9.385919 9.362802 9.314896 9.24512 9.12691 8.922739 8.62072 8.2874 7.937106 7.587966 7.234441 6.877539 6.523431 6.177581 5.839244 5.501789 5.16167 4.822679 4.50353 4.235994 4.050426 3.958323 3.946617 4.010314 4.125447 4.279178 4.460249 4.660445 4.872268 5.088083 5.300869 5.502294
0.04283064 0.4738056 1.480636 2.75488 3.854381 4.252461 3.168648 1.837064 1.046751 0.4578537 0.1396873 0.0338461 0.02387569 0.03300665 0.02839312 0.01493777 0.003708407 0.0001376979 1.357674e-005 0.000177777 0.0004071126 0.0005127787 0.0004431444 0.0003344653 0.000295654 0.0002630559 0.0001433179 7.816454e-013 0 0 0 0.000206016 0.004638105 0.02366087 0.05323979 0.06758778 0.6071607 1.50496 2.255773 2.868729 3.337744 3.148036 2.293806 1.651885 1.25005 0.9890732 0.8113054 0.6760216 0.5681216 0.4801539 0.4060386 0.337629 0.2674709 0.1930704 0.1155114 0.04216705 0.0006008922 0.2464825 0.991563 1.998412 3.015503 3.830087 4.361315 4.671812 4.814146 4.768141 4.81859 5.167693 5.580593 6.187608 6.966138 7.728965 8.181486 7.89816 6.307605 4.750172 3.954569 3.655288 3.67489 4.020233 4.675017 5.525456 6.354814 6.885017 7.094458 7.085407 6.920896 6.660908 6.273115 5.88407 5.696487 5.640757 5.613019 5.782237 5.122535 4.977889 4.98873 5.10708 5.23756 5.286712 5.211462 5.03409 5.157156 5.155682 5.042078 5.004136 4.999644 4.996797 5.044073 5.128781 5.22159 5.424351 5.659158 5.95152 6.287321 6.62639 6.95168 7.388363 8.01645 8.662247 9.086285 9.542005 9.851257 9.987685 9.990124 9.871352 9.66475 9.412625 9.167661 8.962033 8.821172 8.828963 8.953351 8.98927 9.094221 9.177247 9.204142 9.194632 9.15305 9.101729 9.094747 9.099871 9.153848 9.23772 9.318327 9.38683 9.439876 9.471424 9.47317 9.445802 9.388281 9.296305 9.149549 8.929528 8.650525 8.336726 8.000365 7.652792 7.297974 6.9393 6.582995 6.234304 5.892553 5.551199 5.206513 4.862332 4.537155 4.259919 4.057548 3.952875 3.940915 4.012819 4.140093 4.308135 4.504506 4.720161 4.946647 5.175143 5.397067 5.602444
0.002150503 0.246517 1.1402 2.316303 3.364988 4.08994 3.921283 2.372921 0.9924732 0.2932132 0.04283456 0.05299247 0.1228028 0.1541294 0.120527 0.06574427 0.02146893 0.001112638 1.791424e-005 0.0002297995 0.0005051643 0.0006117341 0.0005434811 0.0005332211 0.000644762 0.0007074147 0.0005527132 0.0002307213 1.798375e-005 0 0.0002235029 0.01010508 0.04380681 0.1031568 0.2027607 0.4439048 0.9787904 1.698561 2.333845 2.973085 3.279689 3.003374 2.445169 2.067243 1.697763 1.353902 1.07821 0.8667282 0.7080542 0.5908297 0.5020868 0.4234082 0.3400228 0.249147 0.1521169 0.05922822 0.001083135 0.2722262 0.9792647 1.830035 2.643641 3.253007 3.586101 3.761308 3.894693 4.553576 5.527918 5.208196 5.105051 5.700235 6.596083 7.450326 8.028245 7.98858 6.900968 5.428197 4.595648 4.295544 4.120045 4.317117 4.999549 6.027398 7.03004 7.474678 7.599355 7.652041 7.56978 7.347496 7.05451 6.840276 6.816457 6.999058 7.349612 7.237303 6.184542 5.526738 5.126354 4.955228 4.919227 4.900821 4.881777 4.7845 4.910747 4.936969 4.904933 4.923808 5.009196 5.106749 5.230793 5.387813 5.579443 5.858551 6.20295 6.595024 6.989064 7.318799 7.584132 7.908684 8.401415 8.970232 9.260838 9.573448 9.821989 9.954679 9.970625 9.878764 9.71275 9.504228 9.291032 9.109529 9.010756 9.008389 9.05587 9.093661 9.161183 9.224584 9.257099 9.259127 9.237531 9.212104 9.204453 9.212111 9.24898 9.312454 9.382996 9.448483 9.500415 9.530713 9.529171 9.495033 9.425833 9.317291 9.155464 8.931279 8.658462 8.350945 8.020555 7.675269 7.322289 6.967106 6.615749 6.272019 5.933768 5.593936 5.248367 4.900395 4.567639 4.278657 4.062428 3.948142 3.935925 4.016897 4.15799 4.342126 4.555194 4.786956 5.027758 5.267575 5.496303 5.702476
3.564654e-005 0.1026788 0.7775957 1.799185 2.605772 3.426646 3.955354 3.745925 2.38931 1.006527 0.4534332 0.4088127 0.4617909 0.4250753 0.2951638 0.1563728 0.05510189 0.003106621 1.555894e-005 0.0002125196 0.0004859122 0.0005765507 0.0005480305 0.0007472516 0.001134945 0.001375245 0.001214111 0.0007264205 0.0002565111 3.239725e-005 0.001247778 0.0257486 0.1203726 0.321383 0.5720918 0.8985023 1.344031 1.894776 2.448081 2.917101 3.066842 2.941362 2.690632 2.435566 2.055449 1.632236 1.284675 1.022772 0.8337064 0.70139 0.6064067 0.5184661 0.4143899 0.3000936 0.174872 0.06048874 0.001309003 0.2556733 0.8574271 1.536955 2.158217 2.63379 2.952368 3.225286 3.679776 4.70141 5.759682 5.73918 5.061821 5.386867 6.276502 7.150486 7.886425 8.069167 7.859928 6.933257 6.171476 5.833572 5.009554 4.72004 5.212104 6.330646 7.590807 7.948131 8.005341 8.014071 8.0171 7.851787 7.668451 7.602389 7.656325 7.81424 7.872338 7.205003 6.461939 5.703408 4.98209 4.420284 4.056474 3.863145 3.805482 3.845025 4.045338 4.263912 4.482041 4.725898 4.990842 5.236224 5.462829 5.690848 5.953283 6.305113 6.744559 7.241968 7.720526 8.060846 8.251013 8.471857 8.742194 9.056569 9.353162 9.608712 9.802368 9.909778 9.921103 9.840648 9.699529 9.523048 9.340609 9.188425 9.102581 9.080751 9.097251 9.131301 9.184501 9.238688 9.276257 9.292652 9.291959 9.285186 9.28253 9.288627 9.312731 9.35883 9.417176 9.476601 9.526175 9.555402 9.551558 9.511884 9.433356 9.3149 9.151274 8.927875 8.642726 8.326851 7.99394 7.650674 7.30305 6.957061 6.618167 6.287983 5.961428 5.62979 5.287906 4.938297 4.597712 4.296142 4.066719 3.94489 3.934402 4.026236 4.18281 4.384287 4.614577 4.861979 5.115498 5.364114 5.596478 5.800004
0 0.01255983 0.5161434 1.288113 1.914108 2.687117 3.391532 3.922782 3.888249 2.643925 1.495108 1.217362 1.084423 0.8359396 0.5233061 0.2643383 0.09976739 0.0164259 5.125074e-006 0.0001192723 0.0003559723 0.0004235302 0.0004721071 0.0009588905 0.001704114 0.002158479 0.001992582 0.001358063 0.0007071981 0.0002655993 3.673058e-005 0.01116093 0.07288815 0.2952895 0.5897587 0.9543437 1.319777 1.705934 2.074324 2.323895 2.601478 2.80589 2.804979 2.608717 2.219288 1.773779 1.407608 1.135149 0.9422667 0.8090295 0.7103186 0.609254 0.4853847 0.3496903 0.2043568 0.07276478 0.003164097 0.1439294 0.5779094 1.132495 1.655337 2.097154 2.486222 2.926633 3.610024 4.638814 5.620236 5.954217 5.357407 5.154263 5.867623 6.821665 7.819701 8.002433 8.055348 7.867105 7.854891 7.638386 6.419826 5.287494 5.238403 6.079113 7.266474 7.631981 7.758206 7.864824 7.967856 7.980879 7.976997 8.063916 8.092767 8.008783 7.824064 7.223053 6.465064 5.571681 4.523695 3.553676 2.85738 2.490022 2.406095 2.564437 2.942257 3.422851 3.943285 4.467935 4.952142 5.35839 5.689301 5.979076 6.285296 6.684567 7.197595 7.799683 8.388503 8.754046 8.831016 8.992325 9.13876 9.28862 9.486468 9.666615 9.800605 9.869835 9.863118 9.780459 9.648749 9.490902 9.331266 9.200438 9.120898 9.089583 9.093952 9.123754 9.172325 9.226301 9.271933 9.302318 9.318183 9.324547 9.326249 9.328353 9.340012 9.36992 9.415241 9.467095 9.513932 9.543765 9.541384 9.499969 9.413817 9.284084 9.123249 8.916007 8.594013 8.253852 7.912683 7.572634 7.233856 6.901378 6.580388 6.270809 5.964311 5.649355 5.318726 4.97313 4.627483 4.313797 4.071007 3.943259 3.93757 4.043059 4.217022 4.436695 4.683925 4.945444 5.208991 5.462954 5.695223 5.89269
0 0.001700228 0.1259421 0.5329246 1.112824 1.824332 2.551402 3.353183 4.021736 4.065297 3.245878 2.40644 1.883418 1.280662 0.7234526 0.3443595 0.141904 0.04530765 1.137287e-006 4.851697e-005 0.0001904909 0.000218842 0.0003485623 0.001126233 0.002229279 0.002880802 0.002698095 0.001977874 0.001318721 0.0008729594 0.0004581002 2.261096e-005 0.005249629 0.05032991 0.2299484 0.5956371 0.8863419 1.170724 1.518731 1.919315 2.427229 2.753086 2.896772 2.655344 2.22272 1.799706 1.464213 1.218169 1.044608 0.9200593 0.8144611 0.7015254 0.5698364 0.4205392 0.2594835 0.1120852 0.02102231 0.02423483 0.2806073 0.7320673 1.199448 1.649251 2.116298 2.667015 3.394015 4.312704 5.210126 5.80404 5.839154 5.01667 5.324497 6.311258 7.624818 8.05999 8.011972 8.205669 8.755394 8.847826 7.990639 6.434588 5.385067 5.470383 6.121335 6.617124 6.967085 7.282815 7.592425 7.849836 8.073783 8.323317 8.326841 8.032495 7.64396 6.991861 6.147297 5.132158 3.768162 2.456694 1.523147 1.079326 1.018186 1.295172 1.892852 2.655035 3.472349 4.261962 4.944584 5.485344 5.895833 6.223392 6.542653 6.950161 7.493276 8.167668 8.852044 9.201488 9.246571 9.314192 9.415445 9.510458 9.625073 9.732224 9.807902 9.834367 9.801066 9.706426 9.572572 9.421022 9.274043 9.158905 9.088549 9.056205 9.056992 9.087313 9.133792 9.19268 9.249148 9.292581 9.320376 9.334397 9.33715 9.332631 9.330566 9.343485 9.374256 9.416898 9.460391 9.493189 9.499025 9.463311 9.372429 9.219397 9.01329 8.797219 8.462133 8.107374 7.763099 7.430782 7.104262 6.787405 6.486372 6.201357 5.922275 5.634225 5.326701 4.996536 4.653822 4.331529 4.075533 3.94365 3.946939 4.069727 4.263157 4.50146 4.76454 5.037624 5.307401 5.562197 5.789732 5.977107
0 0 0.0004241641 0.01408343 0.3815184 0.9872687 1.658522 2.319532 3.013295 3.666761 3.736169 3.302203 2.460594 1.531027 0.7724676 0.3528016 0.1735993 0.08446178 1.195421e-005 1.522235e-005 5.596422e-005 5.188504e-005 0.0002128184 0.001162725 0.00251425 0.003301222 0.00309756 0.002412248 0.002036537 0.002002654 0.001863679 0.0013073 0.0005604036 3.057666e-005 0.003686521 0.1533453 0.3197323 0.5083416 0.8646389 1.353864 1.969454 2.589655 3.075705 2.739548 2.197439 1.79002 1.504707 1.303813 1.161327 1.047478 0.9388719 0.8201472 0.6819307 0.5213723 0.3450516 0.1774249 0.05549636 0.004709414 0.1005123 0.4082476 0.8179681 1.264403 1.765603 2.337644 3.00156 3.743005 4.463952 5.069489 5.454478 4.659883 4.901857 5.495864 6.718627 7.799754 8.055267 8.604549 9.505905 9.916946 9.325933 7.989743 6.340019 5.318259 5.264742 5.598972 6.004184 6.45257 6.977279 7.55415 8.082405 8.395981 8.391997 8.009736 7.274215 6.390216 5.338203 4.145698 2.677284 1.283639 0.3579157 0.03403964 0.02878308 0.3537311 1.148139 2.163436 3.231225 4.223881 5.036017 5.647431 6.088319 6.419422 6.723798 7.102168 7.617786 8.294929 8.98959 9.389293 9.516071 9.570815 9.621865 9.672267 9.727979 9.776558 9.802735 9.790563 9.729568 9.618957 9.477623 9.325192 9.182937 9.081471 9.029996 9.000759 9.00078 9.038344 9.075902 9.142675 9.212117 9.267564 9.303258 9.320145 9.320122 9.306067 9.288314 9.282389 9.296108 9.327223 9.365158 9.402065 9.425753 9.408648 9.328439 9.179577 8.967301 8.626744 8.2506 7.883419 7.541336 7.220907 6.90791 6.605299 6.321643 6.060124 5.81221 5.560683 5.291335 4.994553 4.669961 4.348294 4.080621 3.94687 3.964649 4.108898 4.323631 4.580314 4.857257 5.138363 5.409542 5.659568 5.876463 6.048136
0 0 0 0 0.0265475 0.3225044 0.7026982 0.9580747 1.313151 2.204806 3.0484 3.231267 2.310853 1.257401 0.613682 0.3822642 0.2673944 0.1336523 0.01176039 4.800421e-006 0 0 8.101192e-005 0.000900405 0.002253976 0.003081625 0.002897251 0.002418225 0.002682303 0.003575099 0.00429641 0.004132092 0.002888585 0.001180309 0.0002232051 0.0001190003 0.0004446075 0.04502246 0.3081518 0.7299262 1.333876 2.361378 3.502367 2.90649 2.200888 1.819839 1.584993 1.42617 1.312759 1.206976 1.096781 0.9737012 0.8274915 0.6540197 0.4598939 0.2677816 0.1138875 0.0228767 0.0009647701 0.1915105 0.5320087 0.9398477 1.417273 1.952114 2.524283 3.09494 3.586668 3.935089 4.223338 5.521621 5.452821 5.129167 5.524105 6.436047 7.178273 8.221503 9.465017 9.966272 9.918821 9.066337 7.845342 6.343433 5.327979 5.094397 5.182583 5.453881 5.990488 6.732738 7.376031 7.715739 7.68736 7.16624 6.202608 5.134315 3.852682 2.777969 1.501137 0.4074078 0.01356473 0 0 0.09268029 0.9579281 2.139084 3.377889 4.47647 5.305932 5.885737 6.283816 6.582087 6.866815 7.225108 7.71348 8.405978 9.111797 9.516329 9.666011 9.713482 9.732532 9.746981 9.761862 9.769498 9.758778 9.717425 9.635139 9.511742 9.365156 9.213453 9.075598 8.984789 8.966978 8.936448 8.941157 8.981119 9.000151 9.078892 9.161671 9.227674 9.267717 9.284581 9.279189 9.252873 9.217716 9.192122 9.185266 9.202815 9.229134 9.264331 9.318392 9.331776 9.264961 9.087261 8.813992 8.41403 7.99486 7.600358 7.255033 6.944082 6.639624 6.344475 6.06984 5.823697 5.603255 5.392534 5.176168 4.937681 4.656914 4.359727 4.087183 3.955471 3.995854 4.165866 4.402876 4.676458 4.963875 5.247921 5.513984 5.751693 5.949477 6.095977
0 0 0 0 2.022141e-005 0.001766774 0.01614742 0.02976835 0.1303 0.8577192 2.305691 3.70415 2.840889 0.7175121 0.7719888 0.7784563 0.5590554 0.2974407 0.1037164 0.01835905 0.0002134556 0.0004529212 3.800761e-005 0.0003858949 0.001450487 0.002234292 0.002135606 0.001966195 0.003033126 0.005132121 0.007096017 0.007757345 0.006555441 0.004242961 0.002029379 0.0006079336 0.0001092612 0.0001657302 0.06489629 0.314512 0.7725987 1.775246 3.379946 2.893281 2.239498 1.921911 1.717902 1.579863 1.474335 1.376037 1.271566 1.14645 0.9919393 0.804556 0.591101 0.3733155 0.1858798 0.05589918 0.004522656 0.08453594 0.3306243 0.6783962 1.107095 1.596577 2.119782 2.643501 3.137082 3.652046 4.414728 5.607688 5.858593 5.363756 5.051765 5.343087 5.926444 7.10586 8.488273 9.486095 9.733173 9.401987 8.740315 7.791211 6.409733 5.159358 4.553822 4.260886 4.5499 5.32004 5.832494 6.050665 6.025994 5.616872 4.503509 3.234578 1.901535 1.181559 0.4657823 0.026177 0 0 0.00608406 0.2589819 1.172364 2.485186 3.863572 4.994429 5.737717 6.193029 6.486333 6.734459 7.031505 7.449648 8.089637 8.883928 9.419088 9.67126 9.759881 9.772891 9.760298 9.74463 9.729573 9.708818 9.672712 9.61097 9.514994 9.385135 9.238884 9.09404 8.968177 8.883232 8.845719 8.820717 8.823973 8.85651 8.907628 8.997651 9.094294 9.172316 9.214364 9.233522 9.224285 9.184355 9.131383 9.092712 9.060551 9.065708 9.074603 9.092164 9.187482 9.233396 9.200473 9.019179 8.67428 8.220508 7.749719 7.306587 6.941276 6.626989 6.320413 6.024322 5.749795 5.508812 5.305719 5.128852 4.965877 4.795824 4.583792 4.348641 4.093125 3.972313 4.042664 4.240212 4.499011 4.787387 5.081677 5.363596 5.618278 5.836623 6.007184 6.118154
0 0 0 0 0 0 0 0 0 0.1600746 1.21708 3.066523 3.677827 1.124665 1.623391 1.469521 0.915597 0.4910743 0.2629879 0.1669682 0.1531143 0.1758501 0.08995542 0.0002812044 0.0004850663 0.001079157 0.001088701 0.001200948 0.002960021 0.006228569 0.009562313 0.01133564 0.01055688 0.00795902 0.004847358 0.002219723 0.0005732917 0 0.02550604 0.1892736 0.6345851 1.569179 2.711265 2.733287 2.290433 2.052956 1.87656 1.744459 1.641191 1.54787 1.448477 1.32209 1.15956 0.9589591 0.727504 0.4864882 0.2687881 0.1034426 0.01213686 0.01685658 0.1849078 0.4770133 0.8615796 1.322807 1.84868 2.422134 3.0336 3.733652 4.615717 5.569084 5.956229 5.68777 5.170366 4.850219 4.958002 5.836636 7.0983 8.203886 8.811389 8.958203 8.782986 8.311367 7.391364 5.405322 3.906383 2.736608 2.568248 3.236107 3.736951 3.9597 4.01363 3.793805 2.615175 1.272623 0.365927 0.08968657 0.003234209 0.06383041 0.07116523 0.03020326 0.00889549 0.3964316 1.469181 2.996549 4.571312 5.691377 6.262747 6.525051 6.672405 6.870296 7.229263 7.693778 8.454473 9.231354 9.596782 9.74498 9.776753 9.755735 9.716753 9.677542 9.641663 9.602725 9.551378 9.477563 9.37431 9.243569 9.101754 8.964868 8.845651 8.757577 8.702624 8.670227 8.666025 8.695147 8.765726 8.874588 8.996314 9.096984 9.136096 9.168212 9.161791 9.107933 9.03438 9.009888 8.949011 8.929399 8.925756 8.946754 9.043726 9.073628 9.06712 8.881248 8.467645 7.96427 7.456041 6.988961 6.597918 6.273679 5.960781 5.661088 5.381488 5.138521 4.942216 4.785322 4.664361 4.553567 4.405877 4.236911 4.066753 3.998296 4.10248 4.32802 4.608617 4.91039 5.208256 5.482827 5.719684 5.912162 6.049092 6.115709
0 0 0 0 0 0 0 0 0 0.01400054 0.4194924 2.181325 3.93933 2.30086 2.602914 1.72645 0.9639258 0.5695363 0.4478434 0.4482397 0.4824357 0.4799643 0.2977038 0.07959748 0.0001427766 0.0002032652 0.0002491571 0.0004520675 0.002488759 0.00651297 0.0109945 0.01392137 0.01381451 0.01122736 0.007515981 0.003891038 0.001161982 0 0.01678893 0.150459 0.5627748 1.449034 2.709121 2.915597 2.378961 2.196422 2.033902 1.895089 1.790982 1.70319 1.609049 1.482714 1.313793 1.10224 0.8567591 0.5974532 0.3561198 0.1617329 0.03709643 0.0001349947 0.09076256 0.3326039 0.6848947 1.136243 1.693628 2.341009 3.049002 3.825425 4.676142 5.47095 5.914931 5.897379 5.36178 4.689761 4.425352 4.828519 5.758007 6.748057 7.485632 7.887802 7.939853 7.579265 6.6165 4.620529 2.555405 0.931498 0.5040243 1.065572 1.631774 1.899213 1.977693 2.005736 1.000278 0.177819 0.01224603 0.2162435 0.7975887 1.347023 1.047396 0.4084319 0.03825883 0.3997105 1.631559 3.426034 5.292416 6.377867 6.746498 6.806552 6.805499 6.97406 7.529776 8.074597 8.702736 9.276468 9.595322 9.705949 9.710188 9.670882 9.61677 9.562877 9.514585 9.46724 9.409906 9.331311 9.225922 9.098384 8.964316 8.834968 8.71779 8.622256 8.551206 8.503345 8.483842 8.502201 8.578617 8.705306 8.858206 8.99718 9.02174 9.089236 9.093734 9.030541 8.937453 8.883542 8.813534 8.771427 8.75411 8.76659 8.800824 8.785085 8.721653 8.49635 8.086571 7.583184 7.065818 6.586916 6.180202 5.852582 5.565075 5.27398 4.99011 4.746628 4.55454 4.405442 4.316302 4.264976 4.162911 4.028566 3.989228 4.004351 4.155348 4.417566 4.725129 5.041584 5.340658 5.602324 5.813991 5.974315 6.075334 6.100906
0 0 0 1.347727e-021 7.447858e-009 6.594077e-022 0 0 0 0 0.1139397 1.367069 3.478702 3.939784 2.136896 1.186379 0.6613445 0.5645691 0.6677998 0.7932332 0.8527729 0.7920541 0.5484909 0.2591366 0.06452546 0.002099596 1.15486e-006 7.062259e-005 0.00178196 0.005821842 0.01085456 0.01466697 0.01534678 0.01312091 0.009263101 0.005082915 0.0016204 0 0.008738339 0.09992118 0.4111436 1.12302 2.733423 3.50636 2.634539 2.353642 2.13317 1.989403 1.894107 1.818 1.733175 1.61049 1.438898 1.219626 0.9651994 0.6945014 0.4374609 0.221938 0.07100507 0.0003408316 0.03025769 0.2448013 0.5788864 1.025475 1.610072 2.30867 3.05205 3.808018 4.55643 5.222394 5.690073 5.877772 5.328904 4.527959 4.082238 4.164674 4.702278 5.398368 6.043754 6.489843 6.553354 6.118512 5.044352 3.200841 1.20357 0.1136402 0 0.03663466 0.3207238 0.406268 0.2674308 0.3341247 0.02790202 0.08697137 0.6388816 2.083118 3.741639 4.219114 2.883791 1.105068 0.08117545 0.2360205 1.516481 3.468015 5.505083 6.687326 7.009527 6.96984 6.885074 7.037238 7.930314 8.582865 9.092936 9.369386 9.540332 9.595973 9.580667 9.535112 9.477621 9.418196 9.365504 9.320381 9.267356 9.190264 9.086864 8.966742 8.841857 8.716467 8.597561 8.493101 8.40658 8.339465 8.296976 8.290943 8.356866 8.489236 8.652685 8.80676 8.904426 8.987471 8.987839 8.916881 8.794148 8.694385 8.617356 8.567857 8.526083 8.486835 8.443262 8.364857 8.225055 7.967532 7.571015 7.084047 6.573096 6.095819 5.698694 5.407349 5.163915 4.890252 4.603133 4.378462 4.204621 4.067587 3.987294 3.983109 3.959324 3.83672 3.835542 3.945073 4.176037 4.496913 4.843224 5.178264 5.476501 5.718308 5.894021 6.011583 6.070919 6.093459
0 0 0 1.975019e-007 4.108336e-007 1.457329e-007 2.535429e-020 0 0 0 0.01919716 0.6440572 2.426345 3.831089 3.324275 1.598129 0.7594753 0.8264245 1.063798 1.232562 1.248235 1.087633 0.7966868 0.4790729 0.2255245 0.06302013 0.003828008 3.089827e-005 0.001020199 0.00430043 0.009058897 0.01320639 0.01458806 0.01303338 0.009599913 0.005520969 0.001906747 6.294123e-005 0.002973603 0.06224557 0.309088 0.9467707 2.19581 3.146558 2.692724 2.2865 2.107045 1.994097 1.924846 1.872908 1.806759 1.693976 1.52457 1.301698 1.041664 0.7664201 0.5017053 0.2727654 0.1007943 0.003380226 0.02316172 0.205593 0.532536 0.9783104 1.563571 2.259181 2.970117 3.629666 4.21516 4.696657 5.001109 5.024877 4.611134 4.200582 4.000093 3.949433 3.969346 4.343903 4.75676 5.159514 5.147932 4.689373 3.728452 2.258852 0.75533 0.04611513 9.59566e-005 4.625185e-006 0.0001384742 0.005548928 0.007171017 0.03326681 0.2832209 1.14918 2.85363 4.966732 6.670894 5.954436 3.834187 1.894965 0.2241614 0.08963843 1.2579 3.15065 5.30171 6.608614 7.014596 7.022227 7.014455 7.296299 8.01095 8.664451 9.107135 9.321842 9.418616 9.435666 9.411403 9.370341 9.320158 9.26284 9.209353 9.178574 9.142262 9.07144 8.973283 8.861959 8.741463 8.616887 8.495069 8.383375 8.285309 8.202347 8.137551 8.095809 8.135328 8.262642 8.414403 8.562093 8.678778 8.751346 8.755069 8.6911 8.574749 8.454318 8.37247 8.332461 8.262525 8.153569 8.02696 7.875139 7.672372 7.384842 6.991777 6.516951 6.012429 5.538224 5.159467 4.925489 4.747887 4.518758 4.241208 4.101427 3.957156 3.867766 3.735728 3.664193 3.60603 3.543937 3.609304 3.832126 4.172828 4.572531 4.96695 5.321719 5.614644 5.827712 5.952896 6.009759 5.98265 5.928496
0 0 3.234647e-018 1.618765e-006 2.547309e-006 1.522869e-006 3.073237e-007 6.300392e-020 0 0 0 0.1461217 1.404795 3.001659 3.496396 2.55285 1.560036 1.535443 1.676754 1.737218 1.629142 1.365746 1.032578 0.7079462 0.4391383 0.2307705 0.06867757 7.952839e-005 0.0003850966 0.0024758 0.006287345 0.01017544 0.01200484 0.01123476 0.008618381 0.005202734 0.002034638 0.0002917221 0.0001862041 0.03210789 0.2008929 0.660977 1.556447 3.055729 2.97133 2.346868 2.089666 1.948062 1.893908 1.875813 1.839318 1.74219 1.577606 1.352649 1.088892 0.811967 0.5469858 0.3138049 0.1314299 0.01845288 0.01547811 0.165757 0.4983993 0.9558427 1.521438 2.157748 2.777755 3.291861 3.692045 3.992625 4.146408 4.100199 3.875466 3.877983 3.985306 3.800346 3.608344 3.684146 3.854374 4.158118 4.014043 3.623713 2.940747 1.954994 0.9447662 0.2956746 0.03863479 0.002183347 0.09963136 0.3346641 0.4844396 0.7269422 1.634305 3.16672 5.193648 7.042784 7.622533 5.253428 3.121441 2.42921 1.117199 0.7402615 1.381578 2.720915 4.672386 6.192398 6.84359 6.995388 7.107645 7.454753 8.014596 8.600479 8.990664 9.170753 9.241106 9.244162 9.225536 9.19962 9.166899 9.120367 9.059153 9.049882 9.038799 8.977426 8.882333 8.773742 8.655754 8.532546 8.410118 8.295644 8.193144 8.104786 8.036399 7.97523 7.988237 8.08771 8.198104 8.316431 8.418959 8.476897 8.483183 8.436336 8.338893 8.202724 8.109263 8.094991 7.990838 7.804376 7.598268 7.378218 7.124187 6.811634 6.419682 5.954793 5.454385 4.975094 4.601799 4.437179 4.298318 4.150537 3.962103 3.893153 3.754647 3.619522 3.470415 3.355199 3.272918 3.237563 3.374541 3.729872 4.191949 4.671257 5.108537 5.474321 5.751795 5.927075 5.995535 5.97299 5.838682 5.623726
0 2.771471e-020 1.796813e-006 6.16286e-006 7.613048e-006 5.216426e-006 2.134041e-006 4.983117e-007 1.118735e-008 0 0 0.02012046 0.7976001 2.074711 2.839413 2.785485 2.422718 2.436924 2.35868 2.209651 1.938342 1.595333 1.237522 0.9227759 0.6682124 0.4600657 0.2392339 0.05824007 9.466118e-005 0.0008746124 0.003313636 0.006423329 0.008339648 0.008262845 0.006607375 0.004145631 0.001704292 0.0002923861 0 0.0204653 0.1471569 0.5012386 1.208954 2.523228 2.846698 2.476192 2.059639 1.840071 1.807671 1.845468 1.852569 1.77292 1.610085 1.380282 1.110996 0.8342566 0.5739551 0.3456356 0.1631114 0.04065455 0.003339868 0.1066613 0.4507805 0.9208325 1.44292 1.960956 2.413489 2.772301 3.033898 3.217353 3.304015 3.294889 3.266916 3.385838 3.52501 3.392579 3.210015 3.128972 3.171017 3.251249 3.17883 3.015729 2.719568 2.239321 1.664105 1.142566 0.7034255 0.5107194 1.068611 1.655729 2.01145 2.450458 3.47858 5.088012 6.895107 7.935204 7.632808 6.207463 4.55166 4.027682 3.394936 2.685208 2.444858 2.735445 3.970711 5.745516 6.669574 7.038952 7.2501 7.577966 8.010173 8.470521 8.802827 8.994784 9.045568 9.04601 9.042131 9.037095 9.030481 9.019077 8.95411 8.936302 8.9249 8.873869 8.787328 8.685308 8.573641 8.456049 8.337982 8.226942 8.127867 8.041478 7.980539 7.93178 7.934528 7.990137 8.033916 8.112371 8.183489 8.218151 8.224371 8.203003 8.14657 8.015821 7.898957 7.837402 7.684927 7.445491 7.182022 6.910499 6.619811 6.292284 5.908761 5.465032 4.982652 4.5046 4.117423 4.068851 3.990417 3.877317 3.771069 3.673875 3.543056 3.389992 3.234196 3.115645 3.051272 3.035509 3.234885 3.729371 4.29257 4.824994 5.280489 5.634778 5.87561 5.992724 5.983842 5.860391 5.635288 5.344481
0 4.978756e-017 5.624779e-006 1.398095e-005 1.524006e-005 1.057011e-005 5.089548e-006 1.599463e-006 1.994514e-007 0 0 0.02360109 0.4470319 1.297259 2.087394 2.567715 2.881718 3.232732 2.884391 2.523151 2.136206 1.754234 1.395862 1.101264 0.8646417 0.6520529 0.4140741 0.1856915 0.04398627 5.327809e-005 0.0009425348 0.002932717 0.004571154 0.004937266 0.004151273 0.002647529 0.001010813 1.831486e-005 0.0004563124 0.03005615 0.1700455 0.5261714 1.188335 2.104888 2.563084 2.497828 1.887528 1.63793 1.693232 1.826674 1.886839 1.814527 1.639569 1.394165 1.115495 0.8372837 0.5864446 0.3705935 0.1970119 0.07066838 0.004461104 0.07429501 0.3886377 0.8395514 1.267009 1.613397 1.909277 2.152226 2.336708 2.46893 2.547861 2.592751 2.668701 2.790298 2.909978 3.018857 3.008044 2.987143 2.972401 2.980194 3.012754 3.00783 3.066425 3.05259 2.908563 2.730783 2.573358 2.679693 3.363407 3.842693 4.002178 4.253125 5.075161 6.369785 7.607644 7.882726 7.128598 6.781859 6.510418 6.336939 5.766335 5.022019 4.27496 3.664985 3.785938 5.298357 6.446869 7.098049 7.389487 7.674623 8.007957 8.366748 8.645186 8.816586 8.872355 8.880049 8.884054 8.889276 8.893751 8.889888 8.846373 8.814415 8.787333 8.741878 8.671842 8.583985 8.485024 8.378867 8.270541 8.169046 8.083804 8.01939 7.958055 7.908812 7.901984 7.926035 7.949087 7.998363 8.009188 8.011153 8.011584 8.010643 8.006951 7.878515 7.725214 7.572316 7.364108 7.09504 6.800409 6.499756 6.190459 5.863349 5.504319 5.105931 4.683265 4.27437 3.957785 3.880712 3.811874 3.705848 3.604409 3.499807 3.371281 3.215035 3.067976 2.990348 3.01053 3.120018 3.418586 3.942592 4.524 5.053881 5.485337 5.793411 5.966241 5.994136 5.883932 5.684824 5.432567 5.176258
1.089381e-018 2.304258e-006 1.189408e-005 2.103962e-005 2.111419e-005 1.427707e-005 6.867684e-006 2.208999e-006 3.190442e-007 2.293857e-010 0 0.004024046 0.2245485 0.8086117 1.543271 2.216172 2.809037 3.298785 3.189445 2.620271 2.186287 1.81763 1.479005 1.207793 0.9901055 0.7813892 0.5446249 0.3043728 0.1231179 0.02357493 0.0001342698 0.001121278 0.002331952 0.002804787 0.002476318 0.001622378 0.0005920834 5.960353e-012 0.002771465 0.04441874 0.2018721 0.5619029 1.169881 1.926809 2.444144 2.665069 1.694889 1.483041 1.664573 1.883765 1.968419 1.876499 1.670623 1.400432 1.107633 0.8299085 0.5876931 0.3877214 0.2298989 0.1148931 0.03278797 0.0464924 0.3078203 0.7052907 1.02086 1.286363 1.52062 1.717744 1.876138 2.005313 2.111763 2.218244 2.396974 2.619576 2.867334 3.097692 3.217508 3.263156 3.271376 3.311979 3.410871 3.511668 3.692261 3.918348 4.031635 4.159581 4.297045 4.668378 5.315219 5.5075 5.305839 5.247195 5.830082 6.844912 7.74891 7.803523 7.046721 6.815067 6.866356 7.040192 6.93952 6.561017 5.787014 4.760777 4.247162 4.75565 6.165071 7.05063 7.384425 7.693278 8.00666 8.308956 8.542843 8.690142 8.751612 8.767863 8.774836 8.780599 8.782698 8.773619 8.739831 8.70662 8.675074 8.632945 8.573244 8.496974 8.410232 8.31608 8.217147 8.122643 8.043216 7.982368 7.927217 7.884234 7.87413 7.885414 7.900043 7.923283 7.922641 7.918133 7.915889 7.909926 7.883784 7.756327 7.580763 7.382239 7.1415 6.857662 6.554188 6.248262 5.940283 5.62661 5.300045 4.950945 4.592705 4.256822 3.990526 3.85444 3.743101 3.624532 3.513701 3.405857 3.285573 3.136779 3.008983 2.996142 3.124968 3.355734 3.72541 4.236516 4.784173 5.271081 5.650591 5.895146 5.991268 5.931536 5.757189 5.522734 5.267 5.034722
5.598942e-008 5.087162e-006 1.873807e-005 2.774758e-005 2.581893e-005 1.651679e-005 7.336992e-006 2.105943e-006 2.418606e-007 0 0 0 0.00185677 0.2691053 0.8628981 1.617044 2.360992 2.90056 2.885628 2.428759 2.140664 1.854659 1.561522 1.335851 1.156137 0.9655831 0.7344697 0.4834113 0.266908 0.1116601 0.02025915 0.0002815755 0.0004714306 0.0008444394 0.0008669401 0.0005968733 0.0002193122 0 0.00589495 0.05980925 0.2285287 0.5769842 1.121533 1.806318 2.60461 3.926559 1.68255 1.535993 1.858541 2.131034 2.178857 2.006416 1.723157 1.400632 1.085507 0.8083742 0.5836053 0.4092235 0.2822607 0.19599 0.1382025 0.05062922 0.09255053 0.3405145 0.6042207 0.8521994 1.06934 1.251876 1.408234 1.575271 1.762766 2.022503 2.35405 2.74853 3.15659 3.528325 3.793638 3.903162 3.930586 4.00997 4.20251 4.373352 4.570524 5.012402 5.311145 5.736145 6.086564 6.512581 6.87525 6.640694 6.171665 5.909277 6.283446 7.047909 7.769225 7.918232 7.486507 7.13121 7.293147 7.674782 7.886745 7.94948 7.342565 6.063004 5.254986 5.223257 6.078365 6.786194 7.240013 7.661487 8.00519 8.239716 8.418383 8.535527 8.594949 8.617741 8.627411 8.631828 8.628723 8.613231 8.582569 8.549678 8.518705 8.482903 8.434618 8.371322 8.301116 8.226075 8.139874 8.0524 7.977504 7.917754 7.869141 7.835727 7.826372 7.830044 7.835381 7.839263 7.83623 7.833095 7.82567 7.798512 7.729878 7.582847 7.377306 7.136789 6.868911 6.579968 6.282764 5.989485 5.70233 5.422403 5.153653 4.875837 4.598083 4.340977 4.108313 3.903866 3.722368 3.561062 3.420584 3.299629 3.197289 3.081884 3.010348 3.132393 3.410005 3.775088 4.212103 4.699007 5.177088 5.573374 5.850438 5.97858 5.944318 5.780808 5.544408 5.285555 5.042051 4.851709
1.253469e-006 8.967369e-006 2.083125e-005 2.740353e-005 2.353219e-005 1.336075e-005 4.556675e-006 8.488015e-007 1.75707e-008 0 0 0 0 0.01123911 0.3461714 1.051921 1.840973 2.493688 2.733912 2.536207 2.156553 1.833921 1.641242 1.496533 1.355517 1.177985 0.9438958 0.6789607 0.4430658 0.2637031 0.1351953 0.04052274 7.247373e-005 0.0001036615 0.0001574652 0.0001253439 4.260561e-005 0 0.008187582 0.06726319 0.2323301 0.5518289 1.037848 1.661898 2.408007 3.319255 2.394233 2.138407 2.435149 2.620274 2.502514 2.163042 1.760137 1.372773 1.037996 0.7728245 0.5736313 0.4295606 0.3301513 0.2600089 0.1906645 0.09181432 0.02802707 0.07707481 0.2631646 0.5180027 0.7467054 0.9533864 1.145846 1.397977 1.690449 2.057361 2.512497 3.068361 3.600199 4.092865 4.494016 4.626556 4.635693 4.688735 4.917946 5.108411 5.187981 5.582718 5.9018 6.30187 6.736281 7.112099 7.217753 6.952753 6.483022 6.03001 6.232347 6.793208 7.397486 7.813299 7.936816 7.960706 7.976023 7.962672 7.92944 7.842769 7.304384 6.511366 5.989632 5.777488 6.114627 6.708471 7.197449 7.590717 7.953275 8.135892 8.291537 8.3899 8.441722 8.464985 8.475721 8.47906 8.472234 8.45138 8.416353 8.38257 8.358282 8.332749 8.294863 8.23851 8.181888 8.132334 8.056568 7.972761 7.899586 7.839607 7.79454 7.767682 7.761605 7.765071 7.769171 7.771382 7.772613 7.772892 7.757277 7.702744 7.591157 7.409332 7.17485 6.909811 6.634815 6.363023 6.100872 5.849373 5.610286 5.384055 5.195467 4.987216 4.759382 4.523125 4.26798 4.005351 3.755278 3.529342 3.333426 3.174841 3.070448 3.026042 3.120149 3.402686 3.808365 4.264181 4.730654 5.174763 5.555973 5.827159 5.964421 5.944285 5.793108 5.560389 5.296966 5.046588 4.839976 4.684737
1.82741e-006 8.253789e-006 1.663433e-005 2.032138e-005 1.550837e-005 6.600768e-006 1.001933e-006 1.158232e-018 0 0 0 0 0 0.0002038333 0.1066134 0.6750718 1.456432 2.301878 2.999612 3.268787 2.502728 1.93694 1.931554 1.806506 1.638145 1.429097 1.161976 0.8680125 0.6188329 0.4350501 0.2980497 0.169454 0.02431813 4.504817e-006 1.923061e-006 3.588182e-006 0 0 0.01066175 0.07406905 0.2286968 0.5071355 0.9236785 1.489309 2.265891 3.238272 2.921679 2.568828 3.098357 3.186212 2.808254 2.249892 1.723237 1.290211 0.9600583 0.7265276 0.5661004 0.4587435 0.3875539 0.3332524 0.2733971 0.1988831 0.125852 0.02573426 0.0667695 0.3051005 0.5289783 0.7523406 0.9970943 1.304428 1.675555 2.106285 2.610719 3.266731 3.886576 4.442618 4.925713 5.11867 5.168086 5.206863 5.370569 5.601217 5.749195 5.919977 6.027153 6.314109 6.773324 7.182049 7.311788 7.123474 6.643677 6.103284 6.06733 6.333691 6.701299 7.112696 7.472082 7.702641 7.772375 7.671099 7.539803 7.376375 7.034462 6.773476 6.453326 6.021531 6.124353 6.580001 7.017076 7.363091 7.754463 8.032545 8.176313 8.252552 8.291626 8.311563 8.322263 8.325699 8.318307 8.294952 8.251078 8.2109 8.197702 8.185983 8.161635 8.107821 8.054805 8.039043 7.970123 7.883927 7.808144 7.747199 7.704276 7.681816 7.679193 7.685698 7.694962 7.705429 7.716187 7.719257 7.693537 7.611961 7.45947 7.240466 6.98441 6.713856 6.453227 6.221774 6.022523 5.844273 5.687376 5.546808 5.440654 5.288345 5.071139 4.797749 4.480452 4.146122 3.826855 3.539188 3.291194 3.096495 3.001369 3.062105 3.321892 3.747015 4.253253 4.760836 5.221189 5.595461 5.846901 5.96509 5.942791 5.796375 5.56918 5.30423 5.048062 4.831835 4.66176 4.532717
7.359763e-007 4.220353e-006 8.826303e-006 1.025084e-005 5.99987e-006 1.018413e-006 3.121021e-018 0 0 0 0 0 0 0.0002999829 0.06480823 0.43759 1.133418 2.141702 3.304878 4.180451 3.942843 3.341703 2.893258 2.398381 2.035282 1.721851 1.376728 1.026145 0.7659817 0.5817888 0.4211359 0.2459158 0.08385023 0.01233875 3.143358e-007 0 0 0 0.01649755 0.09308372 0.240393 0.464718 0.7632291 1.128021 1.62733 2.362131 3.243678 2.193816 3.591688 3.607623 2.907137 2.14488 1.554176 1.136925 0.8558646 0.6816601 0.5750537 0.5109661 0.4688865 0.4273364 0.3701366 0.2965254 0.2053539 0.09759717 0.004064542 0.09909531 0.299779 0.5480837 0.8339348 1.183412 1.598105 2.058545 2.575746 3.215337 3.84341 4.417136 4.920421 5.260117 5.468327 5.615606 5.768053 5.919733 5.977401 5.843256 5.697124 5.932682 6.518891 7.053655 7.269422 7.128345 6.712459 6.236163 5.984381 5.867441 5.879828 6.168489 6.624063 7.015287 7.242793 7.184275 7.097221 7.053494 6.992126 6.995377 6.645242 6.036693 6.01546 6.318246 6.688051 7.039958 7.536139 7.919034 8.063081 8.119894 8.144794 8.159032 8.167931 8.17167 8.167536 8.149847 8.099861 8.040609 8.038127 8.036548 8.031507 8.001595 7.935318 7.910329 7.848287 7.766881 7.694105 7.635478 7.594988 7.576101 7.577082 7.588507 7.607001 7.630671 7.654853 7.660763 7.623038 7.516911 7.331186 7.081738 6.816255 6.563789 6.345958 6.182253 6.071054 5.986907 5.938821 5.915787 5.874231 5.737256 5.481481 5.125622 4.712844 4.297011 3.919198 3.594311 3.324296 3.114509 3.0072 3.149319 3.592346 4.143322 4.710802 5.223825 5.634639 5.903771 5.982916 5.933356 5.785455 5.564745 5.304925 5.046323 4.827648 4.648498 4.505279 4.394673
2.941829e-008 5.332103e-007 2.048837e-006 2.387976e-006 2.86504e-007 1.24251e-018 0 0 0 0 0 0 0 5.435806e-005 0.02358155 0.1994225 0.7297484 1.807296 3.352644 4.816641 5.502293 5.169857 4.186945 3.08696 2.469932 2.028672 1.572797 1.134607 0.8837491 0.7110831 0.5240378 0.3136885 0.1353032 0.03861697 0.007124873 0.0006277256 0 8.390267e-006 0.03281429 0.1467223 0.3017952 0.4773116 0.656898 0.8061943 1.056428 1.643824 2.581808 2.389588 3.515465 3.60004 2.586493 1.760786 1.24736 0.9392773 0.7559794 0.6657536 0.6225488 0.6029409 0.582115 0.5405645 0.467393 0.3747738 0.2661271 0.1510475 0.03378124 0.003318828 0.08427965 0.33031 0.621331 0.9906206 1.422414 1.88207 2.387326 2.96756 3.526967 4.0921 4.641269 5.129735 5.531905 5.81949 5.964651 5.97867 5.827836 5.470395 5.15251 5.434032 6.26895 7.007178 7.254062 7.124936 6.737075 6.289364 5.952733 5.530925 5.174794 5.311997 5.775852 6.251322 6.744678 7.026165 7.015671 6.994403 7.015006 7.021855 6.72472 6.20293 6.006554 6.142343 6.479101 6.92682 7.409676 7.820882 8.001768 8.006683 8.008318 8.009252 8.009858 8.010142 8.009922 8.008848 7.989849 7.906902 7.873643 7.860012 7.853297 7.829764 7.774563 7.730538 7.676675 7.61316 7.553272 7.501922 7.463709 7.447905 7.452785 7.471028 7.501728 7.539563 7.577599 7.58764 7.537572 7.410008 7.204093 6.942699 6.687147 6.47855 6.33593 6.271622 6.269318 6.26565 6.319959 6.412877 6.433853 6.280628 5.933424 5.441619 4.899066 4.40126 3.992702 3.679539 3.452249 3.30899 3.295272 3.526784 4.021058 4.603092 5.159857 5.615199 5.913319 6.007412 5.921291 5.747627 5.537545 5.293525 5.04353 4.828226 4.64901 4.4968 4.370734 4.270531
4.241682e-005 7.281363e-006 4.207435e-007 1.459728e-019 0 0 0 0 8.114045e-022 4.610895e-022 4.648905e-023 0 0 0 0 0.002998171 0.2560533 1.238348 3.116244 5.240137 6.791131 7.014885 5.584689 3.589477 2.835569 2.284997 1.721661 1.198057 1.049864 0.8967336 0.6542007 0.3816572 0.1717771 0.06512673 0.03288609 0.02655779 0.0175453 0.02636026 0.1203475 0.2777223 0.4542534 0.6007881 0.6831962 0.7186362 0.8642989 1.383097 2.415892 2.316523 2.926778 3.036465 1.74919 1.216831 0.963973 0.8235108 0.7365369 0.7274992 0.7386842 0.7465838 0.7253106 0.6564378 0.5418409 0.4230615 0.3040919 0.1861683 0.07792263 0.01832882 0.001103022 0.09509826 0.3398879 0.7256032 1.154361 1.556179 1.97579 2.454131 2.963853 3.516581 4.113046 4.731493 5.329474 5.807239 5.99962 5.876494 5.555214 5.170556 4.99312 5.36143 6.206811 7.007855 7.249599 7.120171 6.702652 6.199744 5.931029 5.493616 5.118783 5.040197 5.221654 5.480546 5.95291 6.684434 6.976007 6.997922 7.006772 7.013002 6.825585 6.402351 6.077549 6.045019 6.316198 6.83663 7.257003 7.663486 7.884077 7.921951 7.896966 7.859337 7.835306 7.823416 7.81771 7.812144 7.786156 7.722506 7.675076 7.64576 7.625398 7.598488 7.559973 7.522722 7.482224 7.436496 7.391645 7.349206 7.306603 7.292369 7.299848 7.327376 7.375397 7.423942 7.475333 7.492286 7.435144 7.293392 7.083931 6.840262 6.627609 6.497204 6.469007 6.531014 6.646035 6.670165 6.798728 6.992557 7.051423 6.839842 6.329401 5.625653 4.916437 4.355061 3.969999 3.743095 3.642368 3.649768 3.790034 4.102107 4.573117 5.097634 5.56165 5.883898 6.006402 5.91499 5.695404 5.460585 5.260821 5.043047 4.841603 4.667248 4.514127 4.377948 4.259962 4.162539
0.0003742875 0.0001330336 1.687749e-005 3.834903e-008 0 0 0 6.262055e-021 1.403155e-020 7.602889e-021 1.305635e-021 0 0 0 0 0 0.01592521 0.5856648 2.656607 5.289324 7.360544 7.784756 6.843781 4.192998 3.082269 2.223703 1.668484 1.463911 1.485626 1.215281 0.8121437 0.4303356 0.1833212 0.08733582 0.08513691 0.1076845 0.1197249 0.1570077 0.2787139 0.4757113 0.6927382 0.8491976 0.8860008 0.8270206 0.7885581 0.9646322 1.672391 2.27633 2.866112 1.894121 1.303099 1.251611 1.107053 0.9797394 0.8894647 0.8971676 0.9266151 0.9294371 0.8700952 0.7435696 0.5949327 0.4597933 0.338607 0.2243465 0.1198999 0.04672321 0.01005002 0.0008980968 0.09776112 0.4326017 0.8026397 1.084276 1.40044 1.792997 2.248684 2.772702 3.381468 4.069074 4.795449 5.447219 5.731954 5.575814 5.223727 4.868859 4.831735 5.296828 6.116283 6.898953 7.132092 7.034636 6.638336 6.103482 5.896663 5.602461 5.274596 5.071478 5.004396 4.922681 5.18484 6.124862 6.875638 6.990105 6.990817 7.010925 6.94107 6.532565 6.123047 5.995444 6.086314 6.460448 7.004062 7.471829 7.735921 7.803011 7.752562 7.669306 7.622901 7.600383 7.586193 7.570511 7.539995 7.492268 7.448608 7.415506 7.389755 7.364823 7.339412 7.316619 7.292402 7.259407 7.223563 7.191786 7.124888 7.107454 7.111781 7.153781 7.229309 7.275149 7.346993 7.380325 7.325017 7.184331 6.991501 6.794178 6.660635 6.643476 6.764489 6.865428 7.123141 7.202762 7.368709 7.569282 7.58142 7.257408 6.501596 5.505529 4.622025 4.054146 3.77476 3.718809 3.816599 4.018174 4.308565 4.682667 5.118774 5.550406 5.873654 6.004386 5.953402 5.733314 5.414734 5.153281 5.035483 4.865239 4.701144 4.550374 4.411734 4.283636 4.168234 4.069343
0.001319124 0.0005956037 0.0001376408 5.737847e-006 0 0 1.044225e-020 4.00048e-020 4.772298e-020 2.536682e-020 6.249606e-021 3.51661e-022 0 0 0 0 0 0.1817686 2.227001 5.175943 7.527053 8.647931 7.938689 5.894646 3.969503 2.164505 1.530026 2.259173 2.202554 1.561918 0.9104809 0.4129047 0.1505942 0.09692536 0.1567691 0.2334887 0.2769161 0.3269174 0.4594563 0.6906495 0.9651348 1.176471 1.231344 1.134389 0.9719681 0.8959714 1.135651 1.582679 2.788418 1.511418 2.635906 2.228783 1.707584 1.374987 1.208817 1.171652 1.168345 1.120425 0.9935074 0.8189545 0.647243 0.5039781 0.3836806 0.2718735 0.165207 0.07961576 0.02653254 0.004496417 0.0007314909 0.1179502 0.294583 0.4991959 0.7570659 1.094512 1.48953 1.956171 2.52277 3.191383 3.911266 4.545745 4.914028 5.000039 4.931316 4.502115 4.563861 5.126592 5.897184 6.576931 6.865382 6.842154 6.594296 6.253238 6.05383 5.826087 5.523979 5.276846 5.050812 4.829625 5.243134 6.339176 7.05526 7.036273 7.001101 7.022658 6.917816 6.470368 6.048299 5.970066 5.99316 6.129719 6.672426 7.201016 7.527689 7.624387 7.546443 7.40868 7.361231 7.341634 7.326571 7.309273 7.284533 7.253313 7.223403 7.198743 7.17871 7.161822 7.148729 7.140121 7.131212 7.104074 7.057826 7.046798 6.944982 6.869551 6.861637 6.966022 7.06167 7.079098 7.196475 7.265609 7.218804 7.098525 6.949294 6.825838 6.815979 6.898148 7.094254 7.276532 7.621355 7.827778 7.939881 7.944312 7.751434 7.252239 6.178966 4.864226 3.892456 3.438605 3.376463 3.580525 3.935577 4.354322 4.782718 5.196435 5.577449 5.889377 6.050746 6.024237 5.855469 5.569037 5.222106 4.965693 4.879572 4.738995 4.595278 4.458137 4.32741 4.203127 4.088066 3.986668
0.003276391 0.001652475 0.000495778 2.936465e-005 2.943955e-022 7.333286e-021 3.667323e-020 7.319289e-020 7.243964e-020 3.881055e-020 1.14042e-020 1.130576e-021 0 0 0 0 0 0.07093283 1.89478 5.177958 7.862537 9.082628 8.923665 8.113489 6.543128 4.190318 2.433829 3.327101 2.565363 1.606334 0.8326644 0.3062162 0.0698991 0.08495212 0.224033 0.3700717 0.4566844 0.5097521 0.6319526 0.8752253 1.203469 1.499429 1.632811 1.57283 1.3774 1.174571 1.146503 1.338177 2.335052 2.10323 2.703547 2.492078 2.03562 1.706072 1.532802 1.470566 1.414695 1.297673 1.11985 0.9138172 0.7260955 0.5767427 0.4545581 0.3387694 0.2224918 0.1219953 0.05352624 0.01891034 0.0058188 0.0004452261 0.01692499 0.06135965 0.2202749 0.4863456 0.794488 1.169991 1.645121 2.228748 2.86956 3.438627 3.82101 4.011723 4.067818 3.910415 4.329316 5.004968 5.716507 6.301577 6.613296 6.679463 6.55735 6.336444 6.133762 5.942941 5.754318 5.588737 5.338585 5.04484 5.792687 6.90808 7.238972 7.016523 7.001295 6.931624 6.668507 6.259121 5.99087 5.94727 5.978426 6.000692 6.120149 6.674282 7.187274 7.36258 7.280479 7.068284 7.053876 7.051316 7.048694 7.04543 7.041067 7.035909 7.030956 7.026783 7.023354 7.020595 7.018737 7.017881 7.017079 7.001502 6.90608 6.833158 6.696863 6.560009 6.533461 6.661119 6.773795 6.852874 7.038061 7.154268 7.11797 7.03879 6.962073 6.933051 7.016508 7.158148 7.404132 7.749039 8.104235 8.264712 8.159507 7.773074 7.125856 6.253955 4.824268 3.471373 2.682629 2.52928 2.812048 3.358123 4.010344 4.649099 5.191587 5.609309 5.897963 6.055218 6.06657 5.949695 5.734763 5.448837 5.141589 4.909929 4.771915 4.638247 4.505019 4.375543 4.249569 4.127554 4.012643 3.90955
0.006752285 0.003629776 0.001226448 8.094784e-005 0 5.046429e-021 3.036906e-020 5.170575e-020 4.834889e-020 2.619964e-020 8.202308e-021 9.532416e-022 0 0 0 0 0 0.000819888 1.302101 4.854313 7.930592 9.310349 9.579427 9.305265 8.420511 6.826629 4.854156 2.716088 2.082169 1.333913 0.6782838 0.219292 0.0005407549 0.05108863 0.221163 0.4216846 0.611364 0.6895055 0.7858795 1.003537 1.351063 1.727167 1.97351 2.01348 1.86595 1.636821 1.512927 1.689151 2.389597 3.155688 2.895035 2.424331 2.109728 1.926179 1.814727 1.753725 1.651633 1.500089 1.297643 1.070078 0.8655508 0.7038645 0.5700876 0.4393826 0.3043754 0.1853177 0.1027221 0.05955499 0.04131297 0.02849147 0.01137738 0.0003583506 0.0003831947 0.09978651 0.2665654 0.5183896 0.867519 1.332655 1.871432 2.367987 2.719834 2.9253 3.101615 3.659721 4.418053 5.099202 5.68381 6.149937 6.443931 6.565159 6.523572 6.358773 6.141984 5.98116 5.937537 5.986528 5.96836 5.371037 5.339502 6.381355 6.928397 6.801101 6.724072 6.597096 6.338636 6.018596 5.949052 5.966901 5.999393 6.009017 6.000427 6.126863 6.693496 6.988265 6.987298 6.758128 6.699536 6.7189 6.757622 6.797423 6.83513 6.871675 6.904998 6.933403 6.958718 6.978719 6.986076 6.976413 6.947193 6.876001 6.726913 6.557831 6.371305 6.205373 6.147339 6.222772 6.338064 6.503134 6.777897 6.994337 6.999729 7.000176 7.000394 7.008827 7.091695 7.249969 7.549305 7.971459 8.298237 8.268164 7.761018 6.769361 5.366103 3.965175 2.534069 1.52586 1.218322 1.505722 2.21882 3.150419 4.099762 4.925633 5.535135 5.90291 6.046396 6.048494 5.954853 5.796815 5.586967 5.33843 5.081634 4.867811 4.703728 4.56022 4.424442 4.294712 4.170224 4.05014 3.936543 3.833623
0.01283238 0.007301771 0.002692671 0.0001973826 0 0 2.9631e-021 1.423362e-021 0 0 0 0 0 0 0 0 0 0 0.8148616 3.939195 7.229523 8.871941 9.339175 9.281339 9.074876 8.608408 7.588064 5.34464 3.139519 1.76181 0.9959236 0.5684373 0.2081164 0.05537947 0.1665163 0.4354979 0.7205909 0.8727589 0.9383982 1.075728 1.369266 1.771336 2.119563 2.289328 2.248354 2.058421 1.867458 1.856901 2.121259 2.476275 2.883019 2.629892 2.331631 2.238373 2.113591 2.032242 1.950847 1.815782 1.607632 1.356774 1.121621 0.9291989 0.7644609 0.6016027 0.4357395 0.2931083 0.1970398 0.1499725 0.1338696 0.1241066 0.1070355 0.08530296 0.05330471 0.01285807 0.01914382 0.1263957 0.3229788 0.6555017 1.098635 1.567111 1.943469 2.296778 2.886391 3.879688 4.814939 5.352097 5.760103 6.103734 6.366065 6.516983 6.521405 6.378402 6.146948 5.995565 5.997265 6.157444 6.164413 5.589119 4.729218 5.0412 5.756852 6.031391 6.113875 6.105675 6.038424 5.982864 5.994248 6.043174 6.067392 6.052056 5.997185 5.916071 6.151151 6.422371 6.442369 6.295041 6.314741 6.400795 6.499917 6.594977 6.683197 6.76797 6.84622 6.912535 6.968826 7.011311 7.02231 6.988709 6.907935 6.765248 6.553374 6.308244 6.057423 5.833367 5.699929 5.684978 5.752316 5.922396 6.239497 6.59467 6.846761 7.007339 7.047528 6.973954 6.901471 6.943849 7.205348 7.646977 7.889592 7.492695 6.334907 4.569406 2.837985 1.492884 0.5620344 0.1159678 0.2087748 0.7658734 1.877438 3.158226 4.32064 5.222122 5.785315 6.020778 5.999203 5.87385 5.720143 5.571856 5.409288 5.219436 5.012633 4.817256 4.64573 4.491515 4.348023 4.212765 4.085864 3.966558 3.855649 3.755625
0.02225092 0.0134407 0.005408551 0.0004232934 0 0 0 6.743323e-006 2.408952e-005 2.572549e-005 1.17892e-005 1.424066e-006 0 0 0 0 0 0 0.3880706 2.506284 5.791553 7.870468 8.496009 8.581676 8.890594 9.041416 9.264239 7.409062 4.848403 2.93615 2.034818 1.786386 1.424094 0.5000511 0.3990348 0.6253712 0.9371399 1.110007 1.122208 1.125555 1.290692 1.645611 2.048337 2.335219 2.420554 2.307338 2.074965 1.874368 1.809964 1.944055 2.560151 3.45093 3.01281 2.788282 2.474828 2.359772 2.383244 2.299808 2.086639 1.798213 1.51167 1.266364 1.05021 0.8388039 0.6311499 0.459295 0.3472927 0.2951059 0.2801744 0.2734248 0.2585318 0.235927 0.19953 0.1038656 0.03030306 0.007489277 0.04986293 0.2216684 0.5479689 1.016019 1.396584 1.848595 2.634109 3.815293 4.853396 5.368327 5.734746 6.045833 6.31777 6.509093 6.549919 6.401118 6.104894 5.844424 5.792644 5.99811 5.778896 5.086501 4.351391 4.338788 4.812059 5.201576 5.429267 5.564928 5.689023 5.851071 6.017636 6.12225 6.133918 6.086059 5.997622 5.906511 5.976408 6.095269 6.08394 5.975948 6.055897 6.183975 6.320807 6.454902 6.582983 6.708025 6.826382 6.927692 7.009358 7.067198 7.0774 7.018005 6.889791 6.692214 6.430339 6.127447 5.807197 5.488952 5.220962 5.0735 5.056733 5.188893 5.530615 6.025943 6.500499 6.816547 6.871131 6.645988 6.323597 6.125548 6.236284 6.649099 6.777206 5.796247 3.929559 1.987023 0.7586111 0.1659435 0.01328331 3.953651e-005 0.01150086 0.5399503 2.015032 3.536072 4.743247 5.561777 5.931568 5.957498 5.805303 5.588863 5.410019 5.316509 5.228561 5.103308 4.939433 4.758649 4.583376 4.419646 4.267806 4.127349 3.997912 3.878801 3.77071 3.67502
0.03631075 0.02368165 0.01087719 0.0008885258 0 4.539887e-005 0.0002683357 0.0004938525 0.00057709 0.0004880352 0.0003104537 0.0001390558 3.126975e-005 0 0 0 0 0 0.09055709 1.131736 3.784331 6.504521 7.659149 8.13363 8.721044 9.284872 9.850032 8.6309 6.528868 4.72382 3.766166 3.502687 3.073285 1.674863 1.115695 1.09225 1.315184 1.425118 1.320869 1.147837 1.138273 1.3832 1.78108 2.150507 2.3622 2.361607 2.157548 1.866843 1.600384 1.476292 1.842852 3.283464 3.466442 3.283706 2.815378 2.865362 3.018759 2.971619 2.735534 2.392389 2.036409 1.720095 1.436382 1.163879 0.9056277 0.6980106 0.5637385 0.4987791 0.4754376 0.4607974 0.4365033 0.400232 0.3446021 0.2461799 0.1482222 0.07770257 0.02963644 0.03100798 0.1499989 0.5681946 0.8232852 1.245545 2.013628 3.114024 4.162894 4.923182 5.470411 5.884712 6.237286 6.504715 6.589195 6.415634 5.984809 5.455217 5.089217 5.129999 4.885006 4.319055 3.824368 3.780645 4.120728 4.519276 4.824455 5.051857 5.314929 5.667774 6.021286 6.158916 6.147631 6.086579 5.998532 5.936659 5.95117 5.998773 5.989506 5.943796 5.994537 6.102435 6.236825 6.382926 6.532131 6.682312 6.829222 6.958713 7.059567 7.125041 7.132005 7.052608 6.890566 6.661027 6.375994 6.04293 5.664842 5.238107 4.786405 4.44262 4.304381 4.364347 4.694852 5.268502 5.876981 6.287477 6.321867 5.916033 5.293055 4.749489 4.558916 4.83 4.81307 3.178653 1.384631 0.3219883 0.03374111 0.0004007486 0.05804389 0.2129397 0.4798274 1.283791 2.893733 4.38023 5.350103 5.907066 5.995359 5.817001 5.542793 5.268656 5.091273 5.092014 5.085319 5.0109 4.870528 4.692917 4.511054 4.337888 4.178537 4.034457 3.905129 3.788443 3.684322 3.593705
0.05645746 0.04060987 0.02357412 0.008093901 0.0001108019 0.001538667 0.002758326 0.00315909 0.002938983 0.002311001 0.001544525 0.0008318113 0.0003111688 5.055036e-005 0 0 0 0 0.005153394 0.2665918 1.907594 4.628268 6.654896 7.933487 8.708373 9.61121 9.986922 9.281911 7.920659 6.5954 5.67383 5.068351 4.247643 2.982692 2.054788 1.711092 1.781154 1.711899 1.413667 1.083622 0.9186399 1.035493 1.38234 1.792033 2.116582 2.257451 2.168253 1.940892 1.707313 1.64243 2.006011 2.898834 3.414156 3.300353 3.075053 3.426996 3.701355 3.69945 3.460453 3.075167 2.652191 2.263506 1.909918 1.574312 1.262609 1.013471 0.8475489 0.7569927 0.7099484 0.6720131 0.6263215 0.5717947 0.5042894 0.4161232 0.3233175 0.2445023 0.1844001 0.1371313 0.008911458 0.06108794 0.1886095 0.5133075 1.146837 2.119011 3.164851 4.119652 4.932307 5.551143 6.054991 6.446195 6.601061 6.417287 5.879244 5.151169 4.469069 4.053926 3.775871 3.436117 3.205702 3.274906 3.615098 4.036441 4.393832 4.675837 4.967908 5.358782 5.800862 6.014657 6.018447 6.010392 5.978793 5.963747 5.981729 6.014544 6.021032 6.011162 6.043017 6.119342 6.230658 6.367612 6.519608 6.6784 6.839551 6.988422 7.105035 7.174818 7.179218 7.090188 6.912856 6.676051 6.398394 6.06984 5.663582 5.145325 4.508656 3.921908 3.572965 3.509944 3.769228 4.322925 4.94978 5.372256 5.36136 4.804346 3.918876 3.016128 2.393093 2.218861 1.976494 0.8513164 0.1707452 0.005181666 0.01000965 0.1217434 0.4129018 0.8243477 1.517148 2.754114 4.296896 5.499998 5.937259 6.065022 5.895505 5.585271 5.270652 5.034998 4.944515 4.99121 5.019036 4.953131 4.803705 4.613837 4.420784 4.239076 4.074846 3.930455 3.804765 3.694148 3.597246 3.51379
0.08385389 0.06633217 0.04739492 0.02976399 0.01789027 0.01414704 0.01237965 0.01067597 0.008702064 0.006546197 0.004440114 0.002598842 0.001204621 0.0003635293 5.31235e-005 7.049161e-007 0 0 0 0.02803306 0.777935 2.938604 5.275788 7.042287 8.328943 9.571207 9.993479 9.70697 8.982908 8.14077 7.364304 6.584659 5.540214 4.220474 3.000716 2.29209 2.151551 1.777497 1.306945 0.8763388 0.6289794 0.6571047 0.9373502 1.35046 1.76275 2.052717 2.134965 2.068308 1.979159 2.029629 2.374539 2.958039 3.264862 2.633554 1.386496 2.860824 3.791859 4.117761 4.045703 3.703285 3.25338 2.821479 2.421178 2.040693 1.685099 1.393367 1.186171 1.05468 0.966486 0.890351 0.8151224 0.7437467 0.6740575 0.5984923 0.5169784 0.4382438 0.3668485 0.2807609 0.09174833 0.006043286 0.0005598402 0.00998721 0.3481224 1.107086 2.066222 3.08513 4.071054 4.944301 5.661556 6.230052 6.489451 6.318413 5.722187 4.885986 4.033911 3.351148 2.89582 2.630154 2.577312 2.807725 3.258507 3.759121 4.171143 4.474815 4.720989 4.978405 5.315592 5.510981 5.672087 5.800861 5.889484 5.957453 6.025351 6.084885 6.11647 6.125234 6.144518 6.192077 6.273656 6.388629 6.529138 6.682271 6.843768 7.002121 7.133674 7.212451 7.220985 7.13559 6.96284 6.741286 6.497466 6.207659 5.813519 5.242257 4.432071 3.544323 2.921053 2.692698 2.801253 3.220786 3.746529 4.104024 4.054702 3.463383 2.520377 1.539073 0.896788 0.9880755 0.4880814 0.1283074 0.03355971 0.1904538 0.7667469 1.094352 1.171292 1.520754 2.392747 3.932163 5.459597 6.238605 6.322145 6.072379 5.682999 5.309524 5.046358 4.937239 4.942402 4.994003 5.002952 4.897883 4.711602 4.501296 4.297511 4.112152 3.94953 3.810643 3.693594 3.593415 3.50767 3.434803
0.1179816 0.09995903 0.08043269 0.06178459 0.04697867 0.03728986 0.0301601 0.02416507 0.01875886 0.01386076 0.009493582 0.005812233 0.002996893 0.001164056 0.0002961985 2.553897e-005 0 0 0 0 0.2444099 1.909545 4.090381 5.966048 7.550975 9.106076 9.915655 9.959352 9.696488 9.26827 8.745663 8.010768 6.916155 5.545703 4.137813 2.96438 2.296459 1.720594 1.084046 0.5622898 0.3039931 0.3109197 0.536707 0.9323972 1.405527 1.828328 2.083637 2.189982 2.2474 2.383539 2.685111 3.058297 3.155571 2.601317 1.43255 1.345444 2.772764 3.846813 4.247126 4.074185 3.659976 3.245992 2.855087 2.47975 2.110898 1.787873 1.537628 1.355327 1.213378 1.090183 0.9834638 0.9000908 0.8354806 0.7734982 0.6979854 0.6056644 0.4970821 0.3531163 0.1688592 0.05162817 0.009681965 0.0004202816 0.006120752 0.3613795 1.077459 1.999581 3.00209 3.987232 4.912957 5.698225 6.089066 5.939047 5.331065 4.471924 3.555971 2.750743 2.174716 1.928275 2.007709 2.419378 3.043621 3.669523 4.13717 4.431941 4.613784 4.766818 4.923218 5.033321 5.299758 5.547035 5.752767 5.91187 6.05198 6.165504 6.227154 6.247594 6.256372 6.27983 6.33238 6.419942 6.540675 6.679673 6.832272 6.991558 7.136915 7.234432 7.260347 7.192631 7.038303 6.841857 6.641206 6.410344 6.067331 5.494346 4.570069 3.481463 2.553423 2.01046 1.861377 2.052377 2.392459 2.639426 2.589279 2.131046 1.426727 0.799247 0.8525539 2.942946 1.086241 0.5140132 0.9654524 1.723494 2.328097 2.23062 1.776272 1.765791 2.423024 4.00155 5.579434 6.229606 6.251635 5.859843 5.382323 5.067132 4.947415 4.946869 4.984571 4.993935 4.923528 4.764139 4.552208 4.33083 4.126204 3.947605 3.796584 3.671897 3.569947 3.48505 3.414244 3.355279
0.1568193 0.1387055 0.1188214 0.09907169 0.08132192 0.0664387 0.05367593 0.04250319 0.03263792 0.02406471 0.01664986 0.01048898 0.005749017 0.002540888 0.0008328774 0.0001296964 8.975848e-014 0 0 0 0.08089257 1.268121 3.059509 4.932485 6.706387 8.254407 9.368123 9.815628 9.962989 9.879317 9.710045 9.19969 8.219871 6.910026 5.473213 4.109286 2.98373 2.040619 1.06372 0.3373766 0.07080344 0.07137178 0.2386983 0.6108075 1.129696 1.660019 2.053029 2.291148 2.451624 2.638976 2.915236 3.209891 3.313613 3.038788 2.433145 1.509431 1.461983 2.776123 4.000321 4.042157 3.691 3.359664 3.05573 2.772568 2.444118 2.120499 1.841892 1.613892 1.416918 1.247158 1.114321 1.028685 0.9779956 0.9330617 0.8623365 0.7580844 0.6026371 0.4007419 0.2040928 0.0767471 0.01914888 0.001815332 5.234137e-006 0.03529269 0.3573863 1.026792 1.877295 2.772861 3.699488 4.648457 5.209788 5.101478 4.564741 3.791539 2.920559 2.099181 1.481894 1.273201 1.504437 2.117899 2.940169 3.71896 4.230668 4.473097 4.547034 4.575971 4.639136 4.771104 5.018782 5.303149 5.58902 5.837384 6.066733 6.217867 6.307077 6.341577 6.344287 6.349679 6.378695 6.439974 6.538589 6.661586 6.802914 6.958832 7.114996 7.236578 7.290451 7.249666 7.115431 6.931771 6.753876 6.574562 6.310458 5.781597 4.750268 3.439016 2.233348 1.405372 1.002667 0.9586112 1.102828 1.229398 1.205895 0.9810322 0.6726737 0.4770687 0.7341897 1.61568 1.99676 2.595346 3.468962 4.012504 4.116094 3.193548 1.89176 1.446829 1.521483 2.771496 4.434238 5.531254 5.819045 5.484366 5.088526 4.96559 4.968591 4.998634 4.996985 4.91629 4.760583 4.553397 4.322519 4.101043 3.907712 3.748075 3.619293 3.517026 3.436244 3.371076 3.3183 3.275357
0.1989308 0.180723 0.1603361 0.1392841 0.1187234 0.09930864 0.08121183 0.06466457 0.049831 0.03694545 0.02585455 0.01665624 0.0095304 0.004582289 0.001751441 0.000395584 2.500512e-005 0 0 0 0.009790374 0.5896421 1.971982 3.876554 5.794271 7.481453 8.605021 9.179001 9.428782 9.717175 9.932339 9.891233 9.259381 8.155958 6.831166 5.468919 4.196821 2.985907 1.635745 0.5606052 0.1398708 0.001911526 0.08432814 0.4370722 0.9993327 1.608616 2.083258 2.3835 2.582574 2.782729 3.048189 3.350555 3.573945 3.627053 3.462289 2.687304 1.696272 1.699996 3.369111 3.545455 3.155188 2.924026 2.812965 2.773549 2.570602 2.311086 2.040975 1.791168 1.548519 1.339684 1.195726 1.123821 1.099024 1.076119 1.004626 0.8733136 0.6666844 0.4096342 0.1919965 0.06878479 0.01681858 0.00156747 2.941173e-006 0.0003200642 0.03836096 0.3171395 0.860025 1.444921 2.019526 2.7736 3.471488 3.642856 3.383839 2.841268 2.131839 1.391873 0.7959702 0.630038 1.008351 1.831457 2.883157 3.850667 4.384703 4.512786 4.424757 4.322253 4.337822 4.496781 4.743726 5.020857 5.344924 5.593204 5.911707 6.151481 6.302707 6.372263 6.378887 6.375654 6.391647 6.433412 6.512453 6.621885 6.754436 6.906502 7.069147 7.212007 7.293853 7.277328 7.149257 6.939957 6.724335 6.546929 6.378654 5.965245 4.809789 3.213428 1.774871 0.8225164 0.322286 0.152205 0.170834 0.1950202 0.1916672 0.1738515 0.2506609 0.4494189 1.04624 2.180712 3.417344 4.504928 5.08439 5.228965 4.827929 3.152943 1.385695 0.9814639 0.3432293 1.184565 3.018907 4.598568 5.230612 5.092962 5.003342 5.040164 5.046853 5.008505 4.897956 4.723342 4.507685 4.269364 4.030894 3.82086 3.651258 3.523138 3.426652 3.353469 3.297865 3.255401 3.222953 3.197201
0.2431207 0.2246145 0.2034464 0.1808959 0.1576995 0.1343221 0.1113877 0.08966311 0.06975365 0.05221555 0.037012 0.0243326 0.01442125 0.007395061 0.003153851 0.0008999462 9.443823e-005 0 0 0 8.642308e-005 0.06674621 0.9364557 2.826128 4.841007 6.731359 7.995552 8.57992 8.776714 9.047534 9.481724 9.950652 9.887943 9.117888 8.009347 6.781528 5.599267 4.534426 3.497783 2.071851 0.9812385 0.2876742 0.1578898 0.4892526 1.079841 1.723021 2.202141 2.474933 2.635009 2.801249 3.04656 3.360587 3.648237 3.820512 3.812562 3.511224 2.931592 2.37137 2.535109 2.327585 2.138973 2.071702 2.140759 2.310478 2.382266 2.307814 2.100248 1.865476 1.593711 1.362879 1.229047 1.189756 1.204137 1.210843 1.148865 0.9809766 0.6921271 0.3744593 0.1332375 0.03368604 0.005952249 0.0003321606 1.855709e-008 0 9.595958e-005 0.01017127 0.1766355 0.3735024 0.4179814 0.7120921 1.450243 1.947909 2.032182 1.782492 1.307959 0.7302267 0.2166114 0.077026 0.5391161 1.507601 2.761214 3.959528 4.490399 4.42626 4.11689 3.884452 3.898373 4.129625 4.396228 4.60562 4.98306 5.122231 5.531143 5.912535 6.178999 6.316243 6.334696 6.33546 6.354948 6.387633 6.454759 6.555984 6.684377 6.833837 6.99777 7.151106 7.247257 7.233983 7.076404 6.773881 6.412227 6.116161 6.016883 5.836264 4.560477 2.625628 1.08945 0.3062844 0.01019447 0.0003094362 0.0002656302 0.0004643386 0.0004342789 0.01237029 0.1294716 0.3988093 0.9590675 1.859655 2.909295 3.858093 4.605886 5.008611 4.914783 3.446377 1.473534 0.8513719 0.9125583 0.2332413 1.691113 3.385601 4.312345 4.634488 4.987003 5.134268 5.040176 4.851974 4.637133 4.410382 4.170969 3.926876 3.697879 3.512454 3.378175 3.293294 3.23615 3.195006 3.16498 3.145366 3.133528 3.124455
0.2885593 0.269459 0.2471857 0.2229181 0.1972217 0.1704049 0.1432548 0.1168368 0.09208435 0.06984081 0.05028485 0.03379513 0.02074922 0.01130277 0.005301818 0.001780606 0.0002304177 0 0 0 0 0 0.1544988 1.66163 3.682442 5.760921 7.370781 7.518815 7.402813 7.889772 8.711877 9.524481 9.96828 9.638179 8.773548 7.697388 6.673703 5.82948 5.087759 4.204512 2.869472 1.504673 0.8576631 0.9935139 1.475206 2.049073 2.409258 2.533794 2.568107 2.655893 2.869489 3.177735 3.455695 3.581295 3.48075 3.169012 2.936812 3.141458 3.029619 2.026517 1.798053 1.574975 1.514453 1.753514 2.050488 2.157793 2.051396 1.821956 1.542505 1.321995 1.225386 1.239598 1.304778 1.339594 1.260024 1.045353 0.7029631 0.3236994 0.04731349 8.984479e-006 5.12942e-015 1.13123e-005 9.430478e-006 0 0 0 9.464189e-005 0.01782407 0.0002500463 0.02219033 0.3312538 0.7625483 0.9587287 0.9011872 0.6509469 0.2993776 0.002343363 0.002110454 0.2381058 1.073151 2.268301 3.64614 4.283534 3.980482 3.411636 3.096287 3.212568 3.603672 3.882654 3.960055 4.345579 4.686803 5.107311 5.541996 5.923857 6.156099 6.175062 6.20365 6.253995 6.283933 6.35512 6.455821 6.584096 6.72809 6.883746 7.029876 7.113917 7.060545 6.805927 6.29845 5.627964 5.013298 4.696808 4.663276 3.39411 1.4353 0.2917944 0.007877481 1.512762e-009 8.473859e-008 0.0006466578 0.001556897 0.007812576 0.02574427 0.08761609 0.229379 0.5072486 0.8823506 1.157119 1.385312 2.478082 4.498054 5.366162 4.947023 4.158002 3.404162 1.974579 0.5261305 0.2761924 0.752946 1.878185 3.48529 4.724057 4.994416 4.715307 4.406439 4.174574 3.976844 3.772862 3.560543 3.365619 3.223335 3.131719 3.098294 3.079188 3.065638 3.055879 3.055371 3.060988 3.063388
0.3344317 0.3144955 0.2908751 0.2647034 0.2365477 0.2066512 0.1758326 0.1452855 0.1161334 0.08940409 0.06551331 0.04509049 0.02870912 0.0165935 0.008519933 0.003314096 0.000502832 3.113439e-011 0 0 0 0 0.005061388 0.7306355 2.333219 4.072171 5.289398 4.823257 4.434183 5.611747 7.370074 8.796769 9.73435 9.793727 9.008761 7.984396 7.061882 6.356976 5.746164 5.125076 4.362569 3.575316 2.44057 1.981011 2.108013 2.504963 2.610329 2.474128 2.332581 2.3381 2.542095 2.865295 3.129303 3.171823 2.8861 2.266877 1.645657 2.294011 3.524353 3.373769 2.822817 1.952321 1.32011 1.533661 1.939393 2.117143 2.023679 1.75813 1.451722 1.249151 1.209595 1.295577 1.42222 1.491469 1.404198 1.145699 0.7647903 0.3457187 0.03333497 1.652049e-005 3.195107e-013 8.468051e-005 9.906771e-005 6.512422e-006 0 0 0 1.915346e-006 3.462631e-005 1.194579e-005 0.05743327 0.2160081 0.3365624 0.3428255 0.2424038 0.08661474 0.000227638 4.679683e-005 0.1047285 0.523228 1.200697 2.27982 3.478241 3.023104 2.231849 1.943244 2.220339 2.729783 3.153899 3.447146 3.857887 4.281722 4.696812 5.121385 5.556136 5.821892 5.888815 6.005447 6.095579 6.111267 6.216356 6.318191 6.448465 6.574481 6.704265 6.825308 6.875353 6.736116 6.305179 5.468478 4.465673 3.458694 2.509412 2.053188 1.198904 0.258122 0.009685838 4.882761e-011 0.002088359 0.006786216 0.01223762 0.01485002 0.0174839 0.02647862 0.0384122 0.06284406 0.1288218 0.1918284 0.1401747 0.1902622 1.404096 4.489641 5.853975 5.83171 5.589274 5.124848 4.191531 2.530784 1.054678 0.414924 0.8174705 2.699543 4.397853 4.380864 3.900729 3.641365 3.542431 3.482531 3.381375 3.23826 3.100957 3.035858 2.981964 2.980358 2.98181 2.984264 2.988315 3.001874 3.01468 3.017979
0.3801735 0.3592499 0.3341376 0.3059263 0.275296 0.2425507 0.2085124 0.1744015 0.1414085 0.110617 0.08263072 0.05834597 0.03857927 0.02366537 0.01333521 0.006205134 0.001740715 7.717294e-005 0 0 0 0 0 0.1750856 1.07942 2.098988 2.560138 1.89615 1.363564 2.726672 5.244803 7.695477 9.021441 9.237038 8.477578 7.497144 6.652273 6.039719 5.527134 5.080879 4.63881 4.172232 3.524094 2.918369 2.703632 2.847691 2.605473 2.174189 1.885958 1.861897 2.113392 2.507342 2.812144 2.843529 2.491089 1.775582 1.078684 1.159768 2.381465 3.738444 3.875549 3.209204 2.175304 2.018215 2.259417 2.299836 2.078035 1.705522 1.338593 1.156059 1.195516 1.373477 1.568445 1.666217 1.569795 1.291277 0.8998286 0.4832294 0.1593537 0.02605049 3.110245e-013 4.502017e-005 0.0001345051 3.633305e-005 0 0 5.820673e-005 0.0005903803 0.001079244 0.0004984026 3.786836e-005 0.03229632 0.07000226 0.07873958 0.05246693 0.00831215 1.511543e-007 0 0.01822626 0.09605273 0.2439964 0.8873459 2.069767 1.689672 0.800525 0.7133999 1.197215 1.859815 2.440243 2.89768 3.376097 3.857532 4.294923 4.667337 5.083104 5.251218 5.474311 5.671182 5.810208 5.892498 6.052477 6.134553 6.271177 6.355485 6.434203 6.512084 6.52428 6.270383 5.611061 4.624531 3.632499 2.26669 0.9183458 0.5254925 0.260274 0.03026507 0 5.047723e-011 0.006240364 0.02428775 0.03554194 0.02944467 0.01806044 0.01392851 0.008664827 0.001468311 0.01600877 0.04249876 0.05809087 0.225862 1.655894 4.704291 5.723764 5.535201 5.857873 5.882003 5.529033 4.616275 3.198474 1.818901 1.186601 1.986179 3.380545 3.121301 2.709282 2.66741 2.838268 3.022378 3.083633 3.043147 2.991716 2.988776 2.961381 2.952126 2.950284 2.953539 2.962913 2.979672 2.989701 2.99277
0.4251953 0.4032502 0.3766174 0.3463176 0.313192 0.2777328 0.2408118 0.203649 0.1674263 0.1331601 0.1015278 0.0736519 0.0506114 0.03289346 0.02024866 0.01115333 0.00497799 0.001386997 8.238925e-006 7.752144e-005 4.420082e-005 1.832269e-012 0 0.0177099 0.2515106 0.6982238 0.8341193 0.4329283 0.1054104 0.7288809 2.859099 5.85466 7.519809 7.65741 7.058597 6.249556 5.543925 5.04252 4.648848 4.357075 4.14021 3.931876 3.760651 3.770835 3.730797 2.053152 2.067994 1.571428 1.273155 1.307076 1.670127 2.181987 2.581995 2.688279 2.401446 1.73753 0.9986648 0.6479164 1.000939 2.191247 3.802003 4.200659 3.635441 3.143506 2.910344 2.624117 2.148602 1.626198 1.181715 1.036713 1.19249 1.489822 1.756152 1.867799 1.75404 1.460408 1.071887 0.6678295 0.3253563 0.09341647 0.0002121756 7.622159e-013 2.043818e-005 2.258157e-005 0 0 0.0005657718 0.003457673 0.006549613 0.005790257 0.001821004 0.001581379 0.004140832 0.005119843 0.003309665 0.0004868337 0 0 0 0 0.003223239 0.1654669 0.9487938 0.7704619 0.09623004 0.06214952 0.4640241 1.155299 1.811939 2.328646 2.853189 3.377382 3.851 4.107412 4.474215 4.780375 5.053781 5.201296 5.38463 5.564741 5.751885 5.906405 6.035369 6.04984 6.060611 6.073173 6.061904 5.69862 4.844016 3.998183 2.963699 1.48418 0.2874534 0.03773593 0.01542007 0.0003726624 0.0008212008 0.0001084441 0.003059936 0.02434617 0.03972258 0.03067446 0.01030536 0.001636195 0.0007193082 0.0007499883 0.1231227 0.3107456 0.528761 1.025588 2.497186 4.721028 5.456514 5.032737 5.469998 5.901246 6.064079 5.753011 4.843869 3.230853 1.453074 0.6730087 1.82619 1.57092 1.408461 1.659463 2.186936 2.704467 2.966153 3.040521 3.062138 3.054579 3.023944 2.994066 2.972388 2.961543 2.961543 2.96869 2.975483 2.981571
0.4687293 0.445859 0.4178135 0.3855089 0.3499308 0.3118472 0.2722683 0.232461 0.1935998 0.1565604 0.1219267 0.09093781 0.06490918 0.04450111 0.02952911 0.0184151 0.01051591 0.005412131 0.002868213 0.002006341 0.001226611 0.0002459673 5.591918e-007 5.072307e-006 0.0009152229 0.07715394 0.1361334 0.04839918 0 0.04446608 0.8340648 3.03575 5.024942 5.268574 4.979879 4.49137 4.029665 3.708109 3.455081 3.315519 3.342197 3.505825 3.774435 4.119422 4.243146 3.297782 1.704848 1.118436 0.7975297 0.8704525 1.356959 1.969664 2.447855 2.659104 2.519143 2.002859 1.285549 0.6653425 0.4226497 0.7867855 2.13668 3.830368 4.207762 3.717303 3.305866 2.78696 1.998708 1.428426 0.952715 0.8955904 1.22661 1.672009 1.993134 2.074903 1.920905 1.606614 1.236478 0.8657788 0.5365257 0.2702438 0.0683138 0.001066452 0 1.634433e-014 0 0 0.00199621 0.0103883 0.02109881 0.02464699 0.01657051 0.001843382 4.141475e-009 0 0 0 0 0 0 0 0 0.005538727 0.2642077 0.5662221 0.1751527 0.01180877 0.05145751 0.5102301 1.136424 1.718256 2.281885 2.817378 3.280866 3.596839 3.953589 4.354814 4.675261 4.894429 4.997506 5.181437 5.313361 5.458386 5.604481 5.639469 5.622397 5.548583 5.444269 5.072798 4.16097 3.803195 3.425339 2.152419 0.5477125 0.03161052 0.0143867 0.02046437 0.0186967 0.008705194 0.0006344676 0.008773382 0.01975181 0.01385275 0.0006009225 0 0.0001384971 0.1233054 0.452559 0.8441293 1.301555 1.993822 3.190876 4.667239 5.381078 4.725903 4.966745 5.548995 6.031491 6.086376 5.518479 4.132515 1.965828 0.1454428 0.1048656 0.07626888 0.2582085 0.7909534 1.688534 2.593832 3.096756 3.236905 3.259859 3.217428 3.150741 3.083899 3.030168 2.995013 2.977417 2.971232 2.971122 2.975018
0.5096151 0.486035 0.4568256 0.4227732 0.384939 0.3443747 0.3023016 0.2601319 0.2191354 0.1800824 0.1432758 0.1098831 0.08136479 0.05854185 0.04130376 0.0281078 0.0184296 0.01194737 0.008444861 0.006699423 0.005165977 0.003202858 0.001113718 0.0008823482 0.0003963614 9.575216e-005 0.005313565 0 0 0 0.05614449 0.6800969 1.868734 2.51879 2.727217 2.663487 2.50497 2.399354 2.291708 2.253776 2.430469 2.823965 3.2949 3.707331 3.884465 3.631838 3.144899 2.067116 1.042171 0.8409109 1.386495 1.95546 2.351884 2.593426 2.620703 2.335101 1.765802 1.081056 0.5135152 0.315111 0.8505309 2.257368 3.676419 3.319769 3.224919 2.821733 1.742111 1.288527 0.7950443 0.8433836 1.392513 1.973134 2.262194 2.193285 1.947813 1.6493 1.343418 1.047095 0.7705723 0.5181624 0.2523322 0.03497125 8.419319e-006 0 0 0 0.004835184 0.02319004 0.04923987 0.0656992 0.06046535 0.03293977 1.32307e-006 0 0 0 0 0 0 0 0 0 0.1032237 0.8963915 0.9410011 0.3159848 0.02353386 0.1409479 0.6299202 1.179997 1.730114 2.251368 2.718218 3.117191 3.523655 3.948963 4.312624 4.588477 4.762531 4.936712 4.962123 5.044986 5.184964 5.224627 5.214539 5.108077 4.950854 4.649752 4.049548 3.850443 3.769841 3.286792 1.929159 0.8027292 0.3515667 0.1595413 0.07796238 0.03607777 0.009836672 0.00102604 0.0005980431 2.311973e-007 6.044522e-009 0 0.0008461233 0.1958035 0.6631146 1.216559 1.829831 2.536764 3.431019 4.405993 5.155854 4.567485 4.5581 5.109075 5.692517 5.937436 5.64864 4.690248 2.737766 0.7959766 0.07176108 0.0004134988 0.003040153 0.2815214 1.398699 2.557436 3.200462 3.459002 3.497437 3.416563 3.302421 3.191116 3.100733 3.038113 3.001022 2.981039 2.972388 2.97141
0.5472962 0.5232354 0.4931297 0.4576434 0.417855 0.3750474 0.3306449 0.2862605 0.2434007 0.2028798 0.1646184 0.1295202 0.09906495 0.0741988 0.05486598 0.03957314 0.02796924 0.01994703 0.015455 0.01318932 0.01148472 0.009508672 0.007211021 0.005337192 0.003189866 0.001228153 0.0001100425 0 0 0 0 0.01193817 0.250974 0.6621349 1.02074 1.225438 1.308433 1.379313 1.395243 1.394315 1.5923 2.058665 2.585914 2.962763 3.060507 2.840786 2.857545 3.39005 1.995562 1.228707 1.852907 2.086623 2.151577 2.308029 2.481873 2.482915 2.184214 1.622552 0.9566335 0.4273622 0.3822425 0.9969952 2.369633 3.113873 3.473686 3.572195 3.142319 2.277876 1.180847 1.115009 1.804238 2.39029 2.431159 2.108498 1.806158 1.577683 1.389845 1.208672 1.004469 0.7563718 0.4419602 0.1283107 0.002424606 0 0 0 0.009101861 0.0425883 0.09117375 0.1269019 0.128415 0.08422491 2.30972e-005 0 0 0 0 0 1.189228e-007 1.479363e-006 6.348013e-006 0.003030021 0.02126768 0.2035835 0.7109051 0.3198992 0.04839965 0.0662168 0.3582453 0.7828041 1.259181 1.740872 2.202481 2.642861 3.088851 3.540078 3.948164 4.276825 4.476888 4.66431 4.770667 4.862702 4.918506 4.890667 4.829075 4.793298 4.650519 4.313517 3.857834 3.599423 3.452651 3.061474 2.153891 1.190829 0.6002525 0.2799955 0.1264869 0.05600898 0.02004073 0.003636135 2.155757e-009 0 0 0 4.769431e-005 0.07120937 0.5127689 1.188385 1.888462 2.592865 3.29068 3.920537 4.289068 4.108212 4.221494 4.708509 5.270941 5.562232 5.367841 4.549603 3.038527 1.411631 0.427136 0.05388379 0 0.0534785 1.317131 2.709959 3.359679 3.668012 3.706674 3.588882 3.431281 3.28085 3.159341 3.074004 3.021043 2.989834 2.973675 2.967905
0.5811056 0.5568125 0.5260795 0.4894817 0.4480872 0.4033668 0.3568813 0.3104184 0.2658344 0.2242115 0.1850965 0.1489589 0.1171494 0.09069768 0.06957599 0.0523058 0.0386534 0.02879863 0.02303988 0.02025251 0.01860066 0.01693697 0.01467573 0.01167606 0.008030877 0.004429629 0.001521469 0.0003544782 7.580414e-012 0 0 0 0.002056997 0.04727308 0.1507927 0.3863276 0.6007859 0.7594743 0.8598922 0.855931 0.9666841 1.374405 1.889673 2.260056 2.410929 2.454245 2.823333 3.5632 3.308796 2.044659 2.671808 2.031732 1.636195 1.681069 1.986568 2.293107 2.351578 2.071047 1.514248 0.8737211 0.4591526 0.4915521 1.104717 2.36473 3.664954 3.92352 3.973233 3.673476 2.832032 2.005799 2.519659 2.810067 2.27808 1.705871 1.487326 1.424231 1.411716 1.387318 1.296192 1.085093 0.7629436 0.3967515 0.1094873 0.0003326141 0 0 0.01549092 0.07310709 0.1515233 0.2079833 0.2102569 0.1295729 0.0001310069 3.389737e-005 5.73558e-005 5.756351e-006 0 0.001161801 0.01132719 0.03116089 0.04615417 0.04852805 0.02452686 0.007848819 0.09287055 0.01480065 7.691534e-008 0.03315669 0.2015871 0.4977464 0.8767276 1.297594 1.731054 2.174302 2.634216 3.104672 3.554193 3.940392 4.113011 4.364454 4.521151 4.606357 4.632169 4.525028 4.231507 4.172818 4.082185 3.690192 3.196471 2.898884 2.696276 2.367168 1.787452 1.125401 0.6181956 0.2965351 0.1273961 0.05161344 0.01893974 0.004439353 0.0001717484 0 0 0 0.0004400799 0.07010429 0.4839861 1.123687 1.782176 2.403224 2.94702 3.390194 3.633651 3.694264 3.927013 4.374499 4.875464 5.14807 4.998469 4.330239 3.180565 1.883274 0.88225 0.2416635 0.01127757 0.0175884 1.029007 2.521909 3.391176 3.777996 3.823594 3.683362 3.499844 3.327142 3.188761 3.091539 3.030218 2.992676 2.97164 2.962204
0.6104373 0.5862029 0.5551261 0.5177308 0.4750643 0.4287913 0.3805505 0.3321966 0.2859567 0.2434136 0.2038743 0.1672649 0.1346517 0.1071073 0.08463602 0.06569891 0.05003054 0.03803162 0.03044354 0.02662658 0.02474383 0.02333574 0.02130667 0.01786212 0.01326756 0.008427058 0.004076295 0.0013553 0.0002496171 1.05275e-013 0 0 0.0002938758 0 0.0006709046 0.1570938 0.3650649 0.5153276 0.6565924 0.65773 0.6359147 0.8813075 1.331998 1.719699 1.950395 2.139426 2.569798 3.279127 3.883484 3.670879 2.095668 1.223729 0.7765897 0.8001675 1.193855 1.744904 2.164152 2.254257 1.968353 1.418342 0.8438632 0.4992474 0.5335341 1.016905 2.077203 3.666472 4.370484 4.529081 4.119159 3.292803 3.192718 2.427447 1.418046 1.085328 1.151079 1.310022 1.477627 1.609402 1.646399 1.512538 1.215932 0.8189579 0.4174617 0.1200674 0.0004497186 0 0.03282498 0.1306299 0.2451662 0.3195205 0.3187711 0.2034283 0.04882315 7.078434e-006 2.457437e-005 1.059927e-005 1.76232e-008 0.00235625 0.03494671 0.1078136 0.1652737 0.1719565 0.1217594 0.05348713 0.007921304 2.258286e-005 1.13256e-008 0.01252247 0.09620154 0.2863325 0.5697406 0.9183068 1.301184 1.712952 2.152057 2.607518 3.049784 3.436427 3.691005 3.992783 4.041644 4.044423 4.030167 3.89303 3.329759 2.967757 2.726735 2.404479 2.07667 1.879208 1.727332 1.509214 1.17605 0.787855 0.4489956 0.2120914 0.08394773 0.02857101 0.009035118 0.002097903 0.0001172369 0 0 0.01769824 0.1681915 0.4043239 0.7777167 1.248086 1.768234 2.26204 2.693329 3.079951 3.351438 3.534752 3.792789 4.176308 4.591711 4.820981 4.706031 4.182733 3.30544 2.290742 1.4515 0.8780074 0.238337 0.004898477 0.3666039 1.869418 3.135049 3.67647 3.776761 3.654684 3.480024 3.31307 3.179128 3.085059 3.025165 2.987345 2.964672 2.952921
0.634213 0.6104277 0.5793703 0.5415509 0.4979607 0.4504938 0.4008918 0.350935 0.3031095 0.2596681 0.2199513 0.1833314 0.1504289 0.1222985 0.09904935 0.07902406 0.06168698 0.04740744 0.03727932 0.03142733 0.02844778 0.02681307 0.02506492 0.02182678 0.01705161 0.01158411 0.006266918 0.002363684 0.0005488208 5.028341e-012 0 0.00073515 0.001964558 0.0002068502 0.01992165 0.1555827 0.3640634 0.4924067 0.6482706 0.714524 0.6199478 0.6490722 0.9572973 1.346817 1.657358 1.923878 2.371565 3.069218 3.794667 4.185624 3.40848 1.53221 0.519194 0.1848015 0.4034075 0.9809117 1.625055 2.062844 2.132601 1.83948 1.324404 0.851447 0.6079767 0.7150647 1.158919 2.210814 3.696132 4.47528 4.390161 3.798043 3.156324 2.732816 1.802598 1.206195 1.26979 1.453244 1.67432 1.891491 2.038255 2.01141 1.771807 1.380537 0.9202596 0.4875604 0.1643955 0.04149682 0.1240845 0.2745365 0.4080653 0.477849 0.4533623 0.3090659 0.1117348 4.527978e-005 0 0 0 1.634581e-005 0.04814197 0.1957048 0.3205232 0.3564462 0.2919561 0.1687904 0.0383476 0.0006172472 1.358451e-005 5.529646e-005 0.02542293 0.1313734 0.3316017 0.6053468 0.920619 1.270935 1.651255 2.045182 2.417641 2.731245 2.953748 3.103813 3.043007 2.886595 2.679818 2.359485 1.845624 1.362956 1.02739 0.8709205 0.8442699 0.8429055 0.8009797 0.7076881 0.5602545 0.3788484 0.2027695 0.08048283 0.02737496 0.00677751 0.001158156 7.95609e-005 0 0 0 0.1095613 0.6610324 1.100161 1.393506 1.637991 1.967219 2.330513 2.712147 3.100474 3.424241 3.659611 3.893262 4.183626 4.488632 4.654227 4.557623 4.147389 3.46035 2.644974 1.951977 1.447004 0.8439403 0.276468 0.08907523 0.9560438 2.357716 3.245425 3.510409 3.477409 3.360853 3.234694 3.129934 3.055529 3.007187 2.974827 2.953109 2.939672
0.651713 0.6288298 0.5982201 0.5604189 0.5163013 0.4679736 0.4173972 0.3662025 0.3169207 0.2724848 0.232619 0.1962804 0.1635117 0.1352318 0.111761 0.09138342 0.07310329 0.05686458 0.04377683 0.03483065 0.02955608 0.02677923 0.02499363 0.0223191 0.01809849 0.01280067 0.007335561 0.002883974 0.0006823811 1.02544e-011 0 0.00279027 0.009197435 0.004602452 0.02141233 0.1365434 0.3524329 0.4897232 0.6342739 0.8034251 0.7869427 0.6664131 0.7634456 1.084241 1.452398 1.783085 2.230783 2.915359 3.710491 4.321827 4.33046 3.255082 1.526296 0.3522691 0.0309163 0.3178308 0.9273224 1.554177 1.943357 1.979888 1.683625 1.275309 0.9475826 0.8821812 1.262513 1.741442 2.29737 3.789636 4.208721 4.053939 3.788177 3.739764 3.573003 2.376831 1.967955 1.876673 1.985554 2.197412 2.420588 2.505117 2.359129 2.024696 1.571223 1.098343 0.713304 0.5079366 0.496618 0.586681 0.6761786 0.6988714 0.6183224 0.4235027 0.1650897 0.0001252309 0 0 0 2.49999e-005 0.06065163 0.2628053 0.4632309 0.5559648 0.5067604 0.3621222 0.1820129 0.04601079 0.01882136 0.007583791 0.001339028 0.03295829 0.160811 0.3622694 0.60151 0.8720052 1.167866 1.469694 1.738691 1.939037 2.042028 2.028834 1.838603 1.535558 1.195649 0.7988928 0.5054324 0.2370404 0.03927605 0.0205749 0.1203086 0.1831899 0.1890539 0.1709955 0.1379151 0.09024139 0.03357185 4.188422e-005 0 0 0 0 0 0.0007674689 0.06510521 0.6652316 1.758687 2.23953 2.32324 2.300378 2.381929 2.599638 2.931608 3.332721 3.708497 3.982993 4.190053 4.386886 4.572747 4.657486 4.557652 4.229211 3.68568 3.030039 2.486951 2.134272 1.778 1.373935 0.3308971 0.2524391 1.336749 2.564449 3.125236 3.221087 3.187168 3.121552 3.060946 3.016297 2.985297 2.960804 2.940028 2.923634
0.6626655 0.6411161 0.6113997 0.5740819 0.5298875 0.4810352 0.4298375 0.3778163 0.327315 0.2817663 0.2415962 0.2056387 0.173323 0.1452442 0.1219645 0.1018933 0.08357446 0.0661893 0.05035968 0.03773953 0.02914447 0.02418211 0.02167758 0.01954534 0.01627804 0.01183554 0.007030314 0.002816201 0.0006301702 7.935395e-012 0 0.004125091 0.02341599 0.02408884 0.01149129 0.07653994 0.2615251 0.4337128 0.5388296 0.7498763 0.9107636 0.8223284 0.7407672 0.913574 1.271024 1.649809 2.111679 2.787887 3.616814 4.384955 4.804954 4.523045 3.364057 1.679124 0.3418725 0.07546254 0.3647568 0.9281435 1.482189 1.810696 1.804044 1.578893 1.277893 1.055181 1.058202 1.30298 1.891387 3.123843 3.873687 4.119406 4.175554 4.203759 4.001517 3.223042 2.628717 2.300643 2.279067 2.446749 2.734992 2.930579 2.915403 2.678241 2.277712 1.818077 1.414569 1.146121 1.032501 1.021537 1.025206 0.9741821 0.836562 0.5563776 0.2104319 0.0006242396 0 0 0 1.557878e-005 0.05114612 0.2673419 0.5405198 0.7100552 0.7074082 0.5761222 0.3823391 0.2032131 0.1001942 0.04203042 0.01027475 0.0005714098 0.05996502 0.1895996 0.3518422 0.5375881 0.7407943 0.9420102 1.103263 1.191732 1.18441 1.065817 0.8130824 0.4768775 0.2283909 0.05395537 0.004306947 0.0003477419 0 0 0.0001814299 0.008084589 0.06256285 0.06020082 0.02105032 1.206742e-005 0.04738205 0.08007707 0.09460751 0.05889497 0.01097227 0.01077263 0.03010666 0.240733 0.7950427 2.203691 3.510598 3.644717 3.353698 3.023141 2.882175 2.978889 3.252395 3.641825 4.048384 4.360829 4.564743 4.70062 4.789865 4.795195 4.68014 4.417111 4.004438 3.514536 3.156113 2.877546 2.577033 2.150253 1.404161 0.9176265 1.318543 2.453245 2.96321 3.032004 3.03603 3.020092 3.000983 2.985316 2.970885 2.951982 2.928802 2.906094
0.6665228 0.6466853 0.6183106 0.581966 0.5382131 0.4892201 0.4377349 0.3853449 0.334031 0.28735 0.2466057 0.2109303 0.1792773 0.151711 0.1288934 0.1095741 0.09206437 0.074662 0.05700336 0.04088175 0.02845102 0.02046486 0.01639824 0.01445205 0.01217934 0.009010533 0.00541024 0.00214802 0.0003835735 1.454999e-012 0 0.002758487 0.03378158 0.05933586 0.03306679 0.02623284 0.1296519 0.3171144 0.410087 0.5529479 0.8254977 0.9353604 0.8445354 0.8724816 1.13292 1.497846 1.970313 2.648528 3.479071 4.3006 4.92955 5.139114 4.765945 3.636004 1.670429 0.6788244 0.2818609 0.4534542 0.9097896 1.379426 1.649249 1.68075 1.529492 1.314961 1.185489 1.281739 1.731836 2.557667 3.478078 4.019357 4.281069 4.346184 4.140224 3.598162 3.011791 2.589507 2.470211 2.5717 2.983862 3.315316 3.417242 3.276823 2.950517 2.532396 2.132058 1.818597 1.6159 1.495412 1.388744 1.231278 1.014648 0.6879011 0.3207865 0.06231753 1.405907e-005 0 0 1.459524e-006 0.01049432 0.1905735 0.5217629 0.7653247 0.8250706 0.7308953 0.5460657 0.3447588 0.1885817 0.08610544 0.02703897 0.002454847 0.009171383 0.07995324 0.1749008 0.2835918 0.4009115 0.5106897 0.5811514 0.5866879 0.5177836 0.3766763 0.2007437 0.04061843 0.001664545 1.404122e-005 0 0 0 0 0 0.1789492 0.8399441 1.211233 0.9195845 0.7855008 1.199927 1.413771 1.489007 1.247804 0.7751128 0.7912366 0.8622427 1.251905 2.130581 3.548805 4.654852 4.650756 4.154787 3.641345 3.373872 3.412091 3.631341 3.971116 4.361399 4.692843 4.912593 5.03176 5.070731 5.021359 4.893709 4.690784 4.413072 4.098233 3.864208 3.652966 3.425193 3.1608 2.994075 3.120621 2.889525 3.083042 2.999619 2.941311 2.956441 2.969298 2.97512 2.977404 2.973005 2.95298 2.920885 2.886891
0.6628797 0.6450449 0.6184062 0.5835075 0.5407713 0.492099 0.4406221 0.388285 0.3367297 0.2891489 0.2475959 0.2119179 0.180959 0.1541653 0.1319723 0.1135403 0.09733181 0.08099567 0.06289579 0.04431513 0.02832829 0.01704082 0.01080597 0.008527269 0.006998915 0.0051656 0.003026769 0.001069584 6.187754e-006 3.262221e-015 0 4.431189e-005 0.02487344 0.07422858 0.0704401 0.02224874 0.02619489 0.1528294 0.2824379 0.3446796 0.5555637 0.8431861 0.9416293 0.9667382 1.116727 1.38702 1.817875 2.481603 3.288107 4.080154 4.75468 5.217531 5.341839 4.938423 3.868814 2.251177 0.9487772 0.4360059 0.4641474 0.8150642 1.247324 1.539917 1.61797 1.531754 1.405033 1.402796 1.663506 2.264527 3.198878 3.819995 4.231425 4.361362 4.195055 3.7739 3.243887 2.783501 2.523679 2.517716 3.171041 3.611521 3.781019 3.741452 3.513578 3.147573 2.760705 2.415512 2.135893 1.90409 1.683183 1.403167 1.103889 0.7706301 0.439079 0.1459066 0.0002367764 0 0 0 9.440824e-005 0.128152 0.4280101 0.6965875 0.8063571 0.7596189 0.6041779 0.4091305 0.2362516 0.1134416 0.04018978 0.00626443 0.0003914144 0.0239617 0.06611191 0.1148142 0.1649301 0.2056536 0.2161879 0.180238 0.1093872 0.008522305 0.002131126 1.586355e-005 0 0 0 0 0 0 0 0.3853692 2.128223 3.416034 3.481435 3.405741 3.633492 3.758422 3.783043 3.61807 3.151616 2.686237 2.513405 2.646958 3.258688 4.199203 4.865973 4.926012 4.570858 4.091553 3.831591 3.871125 4.04754 4.307377 4.626516 4.9354 5.16696 5.301521 5.340528 5.276395 5.149231 4.997272 4.837779 4.67783 4.535048 4.395096 4.273141 4.232412 4.448933 4.652431 4.118751 3.669237 3.236975 3.000777 2.998834 2.999297 2.999479 2.999573 2.994391 2.963404 2.914078 2.863818
0.6504355 0.6347957 0.6102387 0.5772216 0.5361388 0.4884804 0.4373849 0.3853995 0.3342493 0.2864385 0.2441692 0.2081433 0.1776567 0.1517965 0.1303901 0.11272 0.09773213 0.08306205 0.06605006 0.04688288 0.02869701 0.01470118 0.006385497 0.00359011 0.002474725 0.001644387 0.0009297978 0.0003005086 2.497276e-006 1.362093e-005 1.519653e-005 3.968039e-006 0.003892548 0.03408441 0.04771123 0.02630973 0.004915426 0.02846386 0.1380748 0.2217795 0.3104805 0.5679091 0.8724554 1.092286 1.273122 1.451478 1.767051 2.353599 3.094308 3.797221 4.397956 4.90808 5.254339 5.242974 4.724922 3.786819 2.735995 1.340195 0.5014157 0.3479156 0.6996201 1.143345 1.450083 1.555016 1.510833 1.445747 1.503303 1.801457 2.405712 3.236625 4.058938 4.345205 4.244273 3.893042 3.400098 2.911005 2.572067 2.574826 3.146023 3.602769 4.008375 4.121223 3.931085 3.578624 3.186807 2.803923 2.444825 2.092291 1.76559 1.437118 1.109761 0.7726565 0.4352445 0.1348083 9.988034e-005 0 0 0 9.152245e-006 0.05561544 0.2627862 0.4973473 0.6206345 0.6146823 0.5049769 0.3510479 0.2075244 0.1013909 0.03714052 0.007216703 9.254674e-009 0.002643124 0.01687855 0.03191659 0.04408668 0.04882967 0.04253791 0.01471559 3.44927e-005 0 0 0 0 0 0 0 0 0 0.06371394 0.5974376 2.059102 3.426006 4.099525 4.433206 4.697358 4.847394 4.918031 4.836763 4.487092 4.079843 3.793325 3.646603 3.942584 4.505959 4.929377 5.016565 4.781396 4.416496 4.253617 4.319762 4.457066 4.626582 4.842115 5.084409 5.300355 5.455159 5.529247 5.493527 5.385283 5.263905 5.168566 5.098679 5.029895 4.947605 4.875373 4.863691 4.946334 4.915638 4.542354 4.06321 3.596169 3.295388 3.175411 3.115775 3.078593 3.050621 3.021682 2.97085 2.899425 2.831545
0.6301604 0.6167392 0.5944693 0.563629 0.524624 0.4786848 0.4285132 0.3770537 0.326626 0.2793326 0.2369048 0.2005315 0.1702489 0.1452933 0.1248714 0.1078909 0.09371109 0.08049811 0.06530198 0.04713977 0.02847219 0.01291477 0.003199109 0.0007317722 0.0002212743 2.116877e-010 2.475655e-011 2.960597e-006 5.894612e-005 0.0001063883 8.632713e-005 3.664476e-005 4.931302e-006 2.167383e-006 2.638418e-005 0.006977091 2.666869e-005 0.002432329 0.0420862 0.1550447 0.233777 0.3649859 0.6981533 1.122646 1.481051 1.687658 1.897063 2.36207 2.999316 3.588308 4.070731 4.521365 4.918209 5.0816 4.831781 4.179442 3.635695 2.872185 1.203855 0.2087863 0.2236216 0.6407721 1.077522 1.359301 1.436996 1.358875 1.243099 1.212312 1.40334 2.253451 3.860622 4.309246 4.300601 4.027398 3.551256 2.984267 2.43962 2.067731 2.05698 2.706069 3.946031 4.389255 4.216748 3.829291 3.384604 2.933414 2.489624 2.076977 1.719353 1.393723 1.080102 0.7598026 0.4314159 0.1330751 0.0001933468 0 0 0 0 0.0002090482 0.1034231 0.2512235 0.3444639 0.3625623 0.2964622 0.2036916 0.1205103 0.05864931 0.02086398 0.003499147 0 0.0002709847 0.001922087 0.003591004 0.003358889 3.294586e-006 1.172136e-006 0 1.791952e-005 0.01030435 0.009566173 0.002165288 0 0 0 0 0 0 0.03152413 0.3081 1.297639 2.510604 3.492969 4.178437 4.642573 4.95519 5.154589 5.172455 4.904403 4.495636 4.135873 4.01065 4.238147 4.638567 4.948665 5.035775 4.927443 4.712228 4.655561 4.707499 4.78712 4.871704 4.99579 5.166785 5.350177 5.512197 5.624913 5.63947 5.565335 5.461554 5.38624 5.352348 5.325034 5.273703 5.204545 5.141782 5.07903 4.941017 4.673254 4.291314 3.890119 3.585385 3.396826 3.276314 3.188859 3.114869 3.043083 2.962031 2.872332 2.789764
0.6024084 0.5910817 0.5711877 0.5427587 0.5060983 0.4624586 0.4139746 0.3634032 0.3137827 0.2675272 0.2257414 0.1894837 0.1593609 0.1351877 0.115963 0.09986341 0.08623885 0.07395336 0.06057115 0.04442446 0.02691615 0.01122851 0.0007521223 5.803521e-011 0 0 0 1.522383e-005 0.0002483191 0.0003245535 0.0002366904 0.0001040465 2.276231e-005 1.083312e-006 0 3.634763e-006 6.41286e-007 0.007990643 0.05265099 0.1540851 0.2947025 0.4006231 0.6282603 1.095881 1.629993 1.982706 2.174624 2.532306 3.058187 3.541269 3.9162 4.276328 4.637347 4.863669 4.801793 4.453585 4.204404 4.111314 2.581709 0.6226057 0.02042224 0.2158206 0.6203675 1.000703 1.209153 1.195429 1.036919 0.8639063 0.8740024 1.627069 3.338152 4.078242 4.31416 4.206662 3.769099 3.120914 2.360903 1.609175 1.072493 1.43321 3.203421 4.263865 4.260437 3.862435 3.351118 2.831388 2.353601 1.950167 1.624762 1.343225 1.070185 0.7857759 0.4894791 0.2093461 0.03322201 5.456138e-006 0 0 0 0 0.019153 0.05078857 0.08431566 0.1142977 0.07455464 0.04384971 0.02565521 0.01229907 0.00413419 0.0004130375 0 0 0 0 0 3.79817e-005 0.0005777373 0.00257776 0.06060282 0.1245704 0.09773477 0.02896713 0 0 0 0 0 0 0 0.0338653 0.4488696 1.404516 2.481958 3.373548 4.03128 4.527534 4.883481 4.98885 4.763769 4.392071 4.092106 4.07359 4.338091 4.699294 4.978503 5.092605 5.058886 4.949438 4.937114 4.949837 4.967433 4.984783 5.057324 5.18507 5.341228 5.500791 5.640484 5.708251 5.678999 5.590194 5.508176 5.468443 5.44837 5.405966 5.328309 5.22518 5.102941 4.947568 4.728384 4.429953 4.103898 3.823251 3.610796 3.450333 3.317599 3.191755 3.068222 2.95125 2.841173 2.743915
0.5676762 0.5581737 0.5405962 0.5147502 0.4806322 0.4396098 0.3935912 0.3446474 0.2960233 0.2509811 0.2105142 0.1751603 0.1455613 0.1221306 0.1042467 0.08945912 0.07661159 0.06495198 0.05300913 0.03923884 0.02423717 0.01047091 0.001222154 0 0 0 4.395971e-012 0.0002784742 0.0006286306 0.0006666273 0.000449538 0.0001870904 3.906484e-005 2.18212e-006 0 0 1.567388e-007 0.01758552 0.143382 0.2809605 0.4373876 0.6170611 0.8097706 1.184612 1.740886 2.226711 2.486936 2.792484 3.228765 3.640219 3.961513 4.258564 4.566051 4.785826 4.834915 4.725334 4.643301 4.727168 4.017813 1.98517 0.3056548 0.02295059 0.2284427 0.5968892 0.9027002 1.011363 0.9507075 0.8620727 0.9841605 1.686861 2.89536 3.788871 4.304136 4.448774 4.104603 3.432395 2.572054 1.683918 1.041947 1.147379 2.315476 3.536082 3.913728 3.621251 3.117354 2.59608 2.151265 1.823434 1.573946 1.356732 1.124712 0.8722288 0.6045384 0.3498296 0.09789179 0.0001440892 0 0 0 0 3.930932e-007 1.351128e-005 0.002240081 0.007312255 0.001997798 8.073845e-006 1.578211e-006 1.7319e-007 5.489908e-009 0 0 0 0 0 0 0.03030751 0.2712018 0.3890451 0.4936719 0.5377167 0.4049013 0.1455062 0.00204648 0 0 0 0 0 0 0.0005385039 0.04941199 0.5862967 1.602853 2.546471 3.318339 3.94516 4.388959 4.524735 4.319437 4.051198 3.973485 4.10839 4.40865 4.766657 5.031725 5.139058 5.097999 4.99056 4.956515 4.944923 4.943393 4.954366 5.018414 5.14013 5.288849 5.447246 5.60048 5.709479 5.72805 5.660151 5.563923 5.494781 5.455291 5.405765 5.320587 5.200312 5.073219 4.951378 4.761713 4.521512 4.256957 4.009986 3.800604 3.624259 3.463428 3.287928 3.100918 2.943592 2.81662 2.702559
0.5264717 0.5184026 0.5028893 0.4796629 0.4483128 0.4100305 0.3669592 0.3206289 0.2737055 0.2300078 0.1911995 0.1575272 0.1291934 0.1067504 0.09025043 0.07720744 0.06580891 0.0550854 0.0443307 0.03273876 0.02062307 0.009681086 0.002236542 9.733411e-005 2.569714e-015 5.616143e-006 0.0002454726 0.0007521433 0.001099395 0.001026553 0.0006462052 0.0002365102 3.006281e-005 0.0006944056 0.002954572 0.003221678 0.0005400346 0.06944844 0.3384126 0.5814921 0.7039143 0.9042278 1.145198 1.470121 1.923906 2.405536 2.73088 3.02257 3.386215 3.74612 4.073633 4.363641 4.656271 4.845993 4.928953 4.953336 4.975958 5.08161 4.882728 3.720958 1.407588 0.2435004 0.04649824 0.2750164 0.6042046 0.8308893 0.9172827 0.9798975 1.224952 1.870137 2.779987 3.458885 4.161476 4.66961 4.508545 3.900435 3.058968 2.196615 1.591427 1.580983 2.237577 3.129253 3.542178 3.242548 2.788991 2.349328 2.023107 1.837528 1.678579 1.494378 1.266367 1.002987 0.708363 0.400198 0.1023191 6.777482e-005 0 0 0 0 0 0 0 0 0 0 0 0 0 0 7.267754e-005 0.0001730099 0.0006420932 0.01200075 0.0494942 0.4901467 1.00834 1.231738 1.355392 1.351987 1.129596 0.7081724 0.2164222 0.01618482 0 0 0 0 0 0.002628613 0.0576345 0.4273312 1.179215 2.00795 2.785063 3.429155 3.829468 3.920665 3.726176 3.56317 3.662325 4.048144 4.493724 4.871723 5.116768 5.185925 5.082763 4.884309 4.782737 4.752526 4.762963 4.804235 4.893154 5.032549 5.195901 5.365562 5.528181 5.659196 5.715738 5.676056 5.575407 5.475513 5.405468 5.340692 5.251798 5.126964 4.992613 4.910177 4.770426 4.581785 4.366935 4.155074 3.964447 3.795116 3.639105 3.42945 3.16458 2.95973 2.819563 2.67587
0.4795702 0.4725022 0.4586355 0.4378 0.4093921 0.3740422 0.3340289 0.291014 0.2469565 0.2052683 0.1683757 0.1368745 0.1106174 0.08975936 0.07469897 0.06352223 0.05420492 0.04522578 0.03592692 0.02618716 0.01646716 0.007934397 0.002043254 1.741811e-010 2.415826e-006 0.0001011545 0.0004799708 0.001038646 0.00135016 0.001195071 0.0007040149 0.0002009346 3.016849e-006 0.01778544 0.07875354 0.1140711 0.1075211 0.3539441 0.675283 0.9210453 1.104748 1.252499 1.475123 1.794132 2.153385 2.530657 2.83408 3.102155 3.383505 3.669094 3.995594 4.336301 4.647451 4.864855 5.00754 5.127166 5.244198 5.362472 5.376709 4.828063 3.069472 0.8760144 0.07409629 0.0883786 0.3658192 0.6578232 0.8568826 1.029954 1.326169 1.847799 2.378799 2.526314 3.193692 4.533506 4.777311 4.358876 3.636383 2.867619 2.304073 2.167924 2.463807 2.941632 3.180583 2.794692 2.508776 2.271515 2.176168 2.106371 1.917504 1.703164 1.435164 1.147955 0.8245471 0.477058 0.1457325 0.008002006 4.753819e-007 0 0 0 0 0 0 0 0 0 0 0 0 0.0001173451 0.08734007 0.1348595 0.1760643 0.3850004 0.7542076 1.308484 1.861257 2.217591 2.434683 2.463672 2.276705 1.896359 1.279058 0.4715069 0.05674496 0.001696755 0 0 0 0.01230278 0.1313507 0.4704969 1.053072 1.764115 2.468838 2.993567 3.251531 3.275787 3.165163 3.220685 3.687304 4.242516 4.641258 4.985991 5.198137 5.227797 5.071404 4.789979 4.561306 4.492803 4.505275 4.564052 4.671476 4.835147 5.036607 5.243346 5.430951 5.57266 5.643477 5.627522 5.540084 5.431817 5.343019 5.269216 5.189533 5.091986 4.990563 4.900898 4.781362 4.625819 4.447546 4.267501 4.101464 3.95356 3.858322 3.651657 3.354654 3.086355 2.854727 2.663296
